# .PCD v.5 - Point Cloud Data file format
FIELDS x y z normal_x normal_y normal_z curvature
SIZE 4 4 4 4 4 4 4
TYPE F F F F F F F
WIDTH 731
HEIGHT 1
POINTS 731
DATA ascii
0.012429 -0.024714 0.291405 0.355751 -0.934493 0.012781 0.000000
-0.016499 -0.004795 0.238513 -0.965579 -0.260100 0.002086 0.000000
-0.012040 0.013992 0.108763 -0.605639 0.795739 0.001183 0.000000
0.020408 0.005450 0.198419 0.957530 0.288325 -0.002014 0.000000
0.008398 0.018672 0.158202 0.343070 0.939310 -0.000095 0.000000
0.013899 -0.013965 0.240763 0.610087 -0.792046 0.021392 0.000000
0.016337 0.013322 0.096098 0.785947 0.618293 0.000666 0.000000
-0.004959 -0.017027 0.199101 -0.331266 -0.943460 0.012126 0.000000
-0.022167 -0.012087 0.303477 -0.785338 -0.384128 0.485479 0.000000
-0.025764 0.000751 0.283865 -0.998685 0.049280 0.014161 0.000000
-0.010949 0.014721 0.138124 -0.688182 0.725466 -0.010224 0.000000
0.017358 -0.010496 0.185331 0.757487 -0.652849 0.001323 0.000000
-0.008593 -0.015097 0.105181 -0.562324 -0.826909 -0.003589 0.000000
-0.016827 0.003931 0.133364 -0.984298 0.176488 0.003064 0.000000
0.011529 0.017470 0.017268 0.578082 0.815270 -0.033991 0.000000
0.003711 -0.002283 0.001339 0.000678 0.002207 -0.999997 0.000000
0.008351 -0.017175 0.214914 0.312721 -0.949845 0.000798 0.000000
-0.015363 0.008651 0.010896 -0.908025 0.418917 0.000075 0.000000
-0.017170 0.002663 0.227011 -0.998646 0.052009 -0.001491 0.000000
0.027570 0.010310 0.288675 0.924255 0.381776 0.000138 0.000000
0.006699 -0.012940 0.299403 -0.005455 0.003000 0.999981 0.000000
0.007544 0.019250 0.123953 0.449676 0.893187 0.002789 0.000000
-0.015847 -0.018959 0.263569 -0.658623 -0.725789 -0.198609 0.000000
0.018604 0.010355 0.100722 0.800288 0.599605 0.003521 0.000000
-0.009133 -0.014437 0.010345 -0.629977 -0.775059 0.049116 0.000000
-0.011933 0.013750 0.072411 -0.743848 0.668335 -0.004328 0.000000
0.005125 -0.018058 0.048676 0.201349 -0.979311 -0.020187 0.000000
-0.011523 -0.000810 0.001427 -0.163935 -0.041798 -0.985585 0.000000
0.002146 0.019845 0.126837 0.090731 0.995831 0.009363 0.000000
-0.014643 0.011225 0.138781 -0.688182 0.725466 -0.010224 0.000000
-0.017077 -0.000008 0.132375 -0.999904 -0.013868 0.000769 0.000000
0.011561 -0.016133 0.299438 -0.005455 0.003000 0.999981 0.000000
-0.001653 0.019521 0.054558 -0.237747 0.971326 -0.001404 0.000000
0.011567 0.017290 0.048957 0.485050 0.874062 0.027229 0.000000
0.007311 0.019038 0.162381 0.341278 0.939905 0.010381 0.000000
0.014758 -0.008113 0.299447 0.005129 -0.005165 0.999973 0.000000
0.017317 -0.010500 0.173440 0.820942 -0.571000 -0.003658 0.000000
-0.008461 -0.015188 0.146652 -0.566449 -0.824090 -0.003449 0.000000
0.019678 -0.006386 0.094491 0.942859 -0.333172 0.003722 0.000000
-0.006534 -0.025661 0.279137 -0.398199 -0.917278 -0.006266 0.000000
-0.007465 -0.016084 0.088599 -0.317876 -0.948045 0.012866 0.000000
-0.005467 -0.016739 0.030555 -0.380335 -0.924848 -0.001213 0.000000
0.011099 -0.016024 0.060492 0.444364 -0.895845 0.001442 0.000000
0.010830 -0.016092 0.219712 0.429369 -0.903128 0.001195 0.000000
-0.003746 -0.016712 0.004854 -0.320078 -0.883218 -0.342748 0.000000
-0.014886 -0.021118 0.272794 -0.593122 -0.804485 -0.031785 0.000000
0.006255 0.018930 0.299492 0.001401 -0.001307 0.999998 0.000000
0.009735 0.018130 0.174260 0.424836 0.905270 -0.000085 0.000000
-0.010055 -0.014746 0.198008 -0.771047 -0.636761 -0.004580 0.000000
-0.014028 -0.009642 0.109241 -0.770076 -0.632670 0.081930 0.000000
0.014939 -0.020022 0.256557 0.516300 -0.788457 -0.334320 0.000000
0.009767 -0.016539 0.146567 0.405528 -0.913895 -0.018528 0.000000
-0.017182 0.001992 0.131024 -0.984298 0.176488 0.003064 0.000000
-0.013205 0.012327 0.207223 -0.795952 0.605354 -0.002628 0.000000
-0.017668 -0.018307 0.267026 -0.776954 -0.607870 -0.163819 0.000000
-0.011304 -0.012930 0.153869 -0.679530 -0.733621 -0.006358 0.000000
-0.019598 0.017203 0.266189 -0.834919 0.536467 -0.122936 0.000000
-0.002721 0.019228 0.176151 -0.228714 0.973489 -0.003176 0.000000
0.015991 -0.012129 0.220693 0.711918 -0.702262 -0.000949 0.000000
-0.015750 -0.007077 0.084687 -0.975635 -0.219294 0.006881 0.000000
0.020634 0.004254 0.213577 0.978438 0.206504 -0.003897 0.000000
-0.017021 0.018830 0.304281 -0.198053 0.238525 0.950726 0.000000
0.008982 0.027271 0.282144 0.218229 0.975894 0.002753 0.000000
0.020999 0.001272 0.142751 0.999923 0.008409 -0.009071 0.000000
0.002950 -0.018394 0.037716 -0.055797 -0.998437 -0.003078 0.000000
-0.000688 0.019800 0.044043 -0.031660 0.999498 0.001013 0.000000
-0.009746 0.015734 0.104623 -0.609694 0.792595 0.008130 0.000000
-0.008291 -0.015304 0.146302 -0.566449 -0.824090 -0.003449 0.000000
-0.006994 0.017630 0.230494 -0.416200 0.909267 -0.003242 0.000000
0.005134 -0.018112 0.023099 0.232739 -0.972502 -0.008506 0.000000
0.009706 0.018285 0.061878 0.490201 0.871508 0.013281 0.000000
0.009583 -0.025740 0.292777 0.234000 -0.972217 0.006201 0.000000
0.000658 0.019841 0.148246 0.033597 0.999434 0.001747 0.000000
0.029219 -0.001092 0.276317 0.997041 -0.076495 0.007583 0.000000
0.011937 -0.015488 0.122292 0.535435 -0.844576 0.000609 0.000000
-0.016708 0.004533 0.011527 -0.994793 0.095035 0.036826 0.000000
-0.016912 0.002939 0.065103 -0.986384 0.164459 -0.000810 0.000000
0.003749 0.019785 0.063190 0.065920 0.997779 0.009518 0.000000
-0.017128 -0.000404 0.219011 -0.993513 -0.112406 -0.017215 0.000000
-0.009465 0.016151 0.023647 -0.679069 0.734062 0.004336 0.000000
-0.015610 -0.006675 0.171743 -0.925267 -0.379178 -0.010227 0.000000
-0.025731 -0.001796 0.300802 -0.983997 -0.146067 0.102049 0.000000
0.017506 -0.019467 0.304256 -0.037042 0.086741 0.995542 0.000000
-0.000752 -0.018132 0.021429 -0.204795 -0.978701 0.014255 0.000000
-0.007284 0.017551 0.029532 -0.573339 0.819306 0.004462 0.000000
-0.012700 -0.022634 0.292056 -0.505623 -0.862755 0.000340 0.000000
-0.000849 -0.018200 0.242495 -0.083028 -0.996434 -0.015006 0.000000
0.008331 -0.017224 0.096536 0.324088 -0.945992 -0.008092 0.000000
0.017678 0.011509 0.213449 0.852735 0.522340 -0.001850 0.000000
0.020336 0.006012 0.097987 0.974290 0.225278 0.002895 0.000000
0.018114 -0.009431 0.193206 0.819229 -0.573196 0.017605 0.000000
-0.014659 0.010465 0.182677 -0.788360 0.615200 -0.004230 0.000000
0.010873 0.011492 0.001407 0.002205 0.013179 -0.999911 0.000000
-0.005813 0.006428 0.001375 -0.009815 0.010181 -0.999900 0.000000
-0.012932 0.012642 0.165486 -0.751450 0.659770 0.005130 0.000000
0.016949 -0.010986 0.054930 0.795165 -0.605207 0.037898 0.000000
-0.003457 -0.022994 0.255811 -0.231767 -0.910124 -0.343452 0.000000
0.018047 0.011218 0.047577 0.828989 0.559247 0.004346 0.000000
0.000397 0.019758 0.045783 -0.106856 0.994195 -0.012548 0.000000
-0.018362 -0.004953 0.247954 -0.874556 -0.143648 -0.463160 0.000000
-0.005198 0.018366 0.184916 -0.411424 0.911324 0.014785 0.000000
0.004704 -0.018186 0.241168 0.124736 -0.992149 0.009023 0.000000
0.013431 0.006797 0.001413 0.030428 -0.027248 -0.999166 0.000000
0.000036 0.019727 0.065541 -0.128795 0.991648 -0.006864 0.000000
0.011224 -0.015902 0.151878 0.525585 -0.850704 0.007907 0.000000
0.019917 0.007884 0.037436 0.882204 0.470843 0.004677 0.000000
-0.014602 -0.008740 0.146285 -0.831415 -0.555551 -0.010646 0.000000
0.027653 0.010422 0.286266 0.840301 0.339858 0.422364 0.000000
-0.002097 -0.026610 0.295675 -0.218772 -0.975773 -0.002330 0.000000
-0.000377 0.019747 0.087969 -0.019157 0.999813 0.002642 0.000000
0.021189 -0.000543 0.092178 0.978631 -0.205616 -0.001701 0.000000
0.013578 -0.020876 0.303786 -0.213058 0.414176 0.884909 0.000000
-0.007306 -0.015809 0.029148 -0.511607 -0.859099 -0.014391 0.000000
0.004602 0.019675 0.200097 0.209912 0.977640 0.012510 0.000000
0.015731 0.014066 0.228394 0.627066 0.778966 -0.000577 0.000000
0.013650 0.015786 0.219775 0.631840 0.775099 -0.000638 0.000000
-0.003076 0.022517 0.251002 -0.207396 0.897486 -0.389237 0.000000
-0.017023 0.002287 0.053154 -0.988143 0.153530 0.001703 0.000000
-0.005065 0.019022 0.222353 -0.132461 0.991184 -0.002837 0.000000
0.026187 -0.008237 0.261509 0.905502 -0.377044 -0.194689 0.000000
-0.015289 0.009232 0.199265 -0.943311 0.331849 -0.006319 0.000000
-0.016052 0.007148 0.218451 -0.937864 0.347003 -0.000344 0.000000
0.011260 -0.015917 0.122951 0.535435 -0.844576 0.000609 0.000000
0.000419 -0.018237 0.137855 -0.045007 -0.998986 -0.001165 0.000000
0.020386 -0.004290 0.182844 0.935227 -0.354018 -0.004533 0.000000
-0.003020 -0.026395 0.272858 -0.205414 -0.977420 -0.049546 0.000000
-0.009585 -0.021673 0.257881 -0.469859 -0.813571 -0.342542 0.000000
0.016946 -0.011220 0.030794 0.741343 -0.670902 -0.017373 0.000000
0.019255 -0.007225 0.171496 0.889533 -0.456843 -0.005128 0.000000
0.012574 -0.015110 0.018960 0.524730 -0.851217 -0.009367 0.000000
0.020664 0.004329 0.160860 0.988590 0.150616 -0.001908 0.000000
0.000934 -0.018425 0.171942 -0.177395 -0.983952 0.019206 0.000000
0.003533 -0.018215 0.066703 0.081472 -0.996675 -0.000662 0.000000
-0.012075 -0.012346 0.208126 -0.768388 -0.639976 0.003359 0.000000
-0.005409 0.018469 0.068470 -0.492131 0.870489 0.007453 0.000000
0.005431 -0.018202 0.236960 0.043217 -0.999066 -0.000240 0.000000
-0.001166 -0.018009 0.124265 -0.169658 -0.985482 0.006497 0.000000
0.014189 -0.013818 0.075316 0.591558 -0.806085 -0.016902 0.000000
0.018431 0.010625 0.050767 0.828989 0.559247 0.004346 0.000000
0.006577 0.015719 0.299465 -0.008123 -0.004859 0.999955 0.000000
0.004205 0.019688 0.207372 0.071207 0.997416 -0.009518 0.000000
-0.006507 -0.016274 0.060631 -0.473221 -0.880941 0.001988 0.000000
-0.003279 -0.017638 0.197405 -0.331266 -0.943460 0.012126 0.000000
-0.016885 0.003547 0.137131 -0.984298 0.176488 0.003064 0.000000
0.001672 -0.018304 0.197165 -0.014932 -0.999888 -0.000480 0.000000
0.021178 0.000843 0.006271 0.995401 -0.088959 -0.035549 0.000000
-0.024742 -0.007514 0.275069 -0.905678 -0.423962 0.001694 0.000000
0.000589 -0.018320 0.017533 0.007859 -0.999908 -0.011081 0.000000
-0.007332 -0.016085 0.227302 -0.548710 -0.836008 -0.002870 0.000000
0.012420 -0.015137 0.210263 0.554048 -0.832426 -0.009884 0.000000
-0.007419 -0.015603 0.008976 -0.473610 -0.880723 0.004447 0.000000
0.005150 -0.018103 0.102390 0.111580 -0.993671 0.012938 0.000000
0.017573 -0.021787 0.272779 0.575469 -0.817819 -0.002908 0.000000
0.000079 0.019743 0.069983 -0.115459 0.993310 0.001869 0.000000
-0.017123 0.001706 0.057450 -0.997458 -0.071254 -0.000742 0.000000
-0.016948 0.002180 0.092441 -0.994593 0.103837 -0.001629 0.000000
0.021087 -0.000233 0.062038 0.998226 -0.059260 0.005731 0.000000
0.020800 0.004646 0.017507 0.982690 0.185254 -0.001075 0.000000
0.004371 -0.018211 0.132649 0.217015 -0.976160 -0.004042 0.000000
0.001005 -0.018345 0.243946 -0.003481 -0.999987 0.003653 0.000000
-0.013215 0.012382 0.132875 -0.741072 0.671425 0.000451 0.000000
0.016494 0.018711 0.252946 0.528517 0.756836 -0.384538 0.000000
0.007967 0.019035 0.012534 0.309387 0.939390 0.147737 0.000000
0.010940 0.017513 0.188513 0.443304 0.896360 0.004563 0.000000
0.012289 0.016751 0.187038 0.491064 0.871015 -0.013720 0.000000
-0.014409 0.010449 0.030215 -0.864374 0.502842 0.002644 0.000000
0.003891 0.019732 0.099448 0.120603 0.992697 -0.002772 0.000000
-0.013045 -0.011094 0.022794 -0.707987 -0.706226 -0.000507 0.000000
0.020931 -0.001563 0.118379 0.979920 -0.199384 -0.001837 0.000000
-0.003790 -0.017409 0.129207 -0.309592 -0.950860 -0.004174 0.000000
-0.011844 0.013954 0.044878 -0.663387 0.748276 -0.000264 0.000000
-0.014577 0.010096 0.060561 -0.894744 0.446372 -0.013652 0.000000
-0.000543 0.019676 0.127953 -0.046824 0.998844 -0.010890 0.000000
-0.002552 -0.017749 0.105216 -0.233140 -0.972402 0.008972 0.000000
0.006432 0.019269 0.176906 0.187822 0.982200 -0.002478 0.000000
0.013547 -0.014482 0.062009 0.553651 -0.832709 0.008121 0.000000
-0.003944 0.007801 0.001371 -0.009815 0.010181 -0.999900 0.000000
-0.012674 0.013301 0.245628 -0.545746 0.532781 -0.646766 0.000000
0.006462 0.019598 0.224877 0.027779 0.999577 -0.008585 0.000000
-0.004067 -0.023364 0.257231 -0.252710 -0.908501 -0.332812 0.000000
-0.016807 -0.001914 0.010578 -0.996252 -0.086086 -0.008434 0.000000
0.014637 -0.013499 0.099239 0.626741 -0.779224 0.002655 0.000000
-0.013301 -0.010723 0.164670 -0.828086 -0.560600 0.001081 0.000000
-0.019247 0.009049 0.251522 -0.829478 0.386598 -0.403123 0.000000
-0.013099 -0.011077 0.185380 -0.756656 -0.653808 -0.002817 0.000000
0.018249 0.010839 0.059556 0.842309 0.538978 0.004240 0.000000
-0.008224 0.026372 0.278738 -0.406393 0.913497 0.019170 0.000000
-0.001524 -0.018189 0.114924 -0.037000 -0.999285 0.007730 0.000000
0.020005 -0.005275 0.173543 0.943299 -0.331945 0.000438 0.000000
0.017685 -0.010083 0.071943 0.817710 -0.575620 0.003490 0.000000
0.000278 0.019694 0.171455 -0.081003 0.996664 -0.009973 0.000000
-0.014836 0.009792 0.120074 -0.848165 0.529694 -0.006312 0.000000
0.012569 -0.015114 0.241815 0.628773 -0.777460 -0.014168 0.000000
-0.006667 -0.016223 0.111714 -0.396423 -0.918062 -0.003375 0.000000
0.026285 -0.011839 0.288750 0.896741 -0.442501 0.006978 0.000000
0.016354 -0.011829 0.056711 0.756296 -0.654209 0.005114 0.000000
0.027337 0.010607 0.270458 0.917555 0.384473 -0.101355 0.000000
-0.001310 -0.018068 0.182319 -0.124211 -0.992249 -0.003651 0.000000
0.011415 -0.000596 0.001343 0.000881 0.015019 -0.999887 0.000000
-0.016636 -0.002904 0.049305 -0.967693 -0.250641 -0.027375 0.000000
0.019932 -0.005348 0.237179 0.940621 -0.339279 0.011033 0.000000
-0.012926 -0.004856 0.001999 -0.292542 -0.131189 -0.947211 0.000000
0.016989 -0.011159 0.021168 0.764652 -0.644386 0.008579 0.000000
0.017538 0.011722 0.153783 0.786816 0.617182 -0.002712 0.000000
0.010207 0.002600 0.001447 0.032390 -0.034482 -0.998880 0.000000
-0.013417 0.012045 0.120112 -0.791250 0.611458 -0.006509 0.000000
0.002696 -0.018323 0.106594 -0.052770 -0.998547 -0.010909 0.000000
-0.015405 0.008991 0.234016 -0.863463 0.504410 -0.001464 0.000000
0.021400 0.010186 0.249907 0.792083 0.405275 -0.456461 0.000000
0.016056 -0.012196 0.010589 0.789522 -0.613567 0.013811 0.000000
0.009817 0.012178 0.001414 0.002205 0.013179 -0.999911 0.000000
0.005957 0.019392 0.122872 0.220270 0.975437 -0.001773 0.000000
-0.015491 0.008667 0.116301 -0.950215 0.311585 0.002455 0.000000
-0.022029 0.014494 0.290028 -0.884651 0.466251 -0.001629 0.000000
0.029200 0.003231 0.288494 0.986882 0.161058 -0.011140 0.000000
0.025467 0.004571 0.254821 0.934330 0.083943 -0.346382 0.000000
0.017651 -0.010080 0.118938 0.794836 -0.606791 0.006335 0.000000
-0.012165 0.013495 0.072716 -0.743848 0.668335 -0.004328 0.000000
0.015287 0.014454 0.107655 0.755402 0.655095 0.014780 0.000000
-0.016301 -0.002489 0.230974 -0.937269 -0.330398 0.111195 0.000000
0.020009 0.007780 0.299419 0.008119 0.003966 0.999959 0.000000
-0.012413 0.013271 0.100901 -0.707787 0.706362 -0.009448 0.000000
0.020932 0.013867 0.252981 0.775547 0.490951 -0.396855 0.000000
0.011746 0.017092 0.192229 0.533572 0.845472 0.021869 0.000000
0.007810 0.018864 0.226378 0.328356 0.944535 -0.005947 0.000000
0.018590 -0.008465 0.223264 0.867582 -0.497280 -0.003864 0.000000
0.005297 0.019865 0.048166 -0.002486 0.999926 0.011905 0.000000
0.020819 0.003406 0.137885 0.992858 0.119090 -0.007112 0.000000
0.010361 0.018064 0.082348 0.307446 0.951548 -0.005753 0.000000
0.015268 -0.012920 0.079004 0.726587 -0.687039 0.006957 0.000000
-0.002755 -0.017648 0.055146 -0.297041 -0.953945 -0.041893 0.000000
0.019032 0.009541 0.055385 0.858278 0.513108 0.008886 0.000000
0.000966 0.019788 0.159927 0.045895 0.998844 -0.014296 0.000000
0.021149 -0.000412 0.172625 0.977460 -0.211120 0.000326 0.000000
0.020664 0.004575 0.132240 0.991625 0.129077 0.004337 0.000000
0.013947 0.015552 0.148659 0.656623 0.754212 -0.003230 0.000000
0.018114 -0.009367 0.110144 0.853583 -0.520954 -0.001944 0.000000
0.019250 -0.011447 0.299503 -0.011281 -0.009044 0.999895 0.000000
0.003547 -0.018328 0.245516 0.109740 -0.734255 -0.669946 0.000000
-0.017033 0.000249 0.044582 -0.997000 -0.077348 0.003019 0.000000
0.020938 -0.001084 0.150018 0.995416 -0.093445 0.020376 0.000000
-0.001224 -0.018098 0.072409 -0.062302 -0.998049 -0.004090 0.000000
-0.007540 0.017353 0.182095 -0.411424 0.911324 0.014785 0.000000
0.010006 -0.016503 0.152113 0.414023 -0.910265 -0.001770 0.000000
-0.014848 0.009738 0.142851 -0.895783 0.444447 -0.006334 0.000000
-0.016938 -0.001810 0.086513 -0.974158 -0.225868 0.000450 0.000000
0.005580 -0.026660 0.292233 0.213970 -0.976838 -0.002081 0.000000
0.016116 -0.012080 0.120050 0.794836 -0.606791 0.006335 0.000000
-0.006218 0.018273 0.160328 -0.260144 0.965567 0.002413 0.000000
-0.011074 0.014676 0.179218 -0.653735 0.756709 -0.004697 0.000000
-0.017343 0.000857 0.245747 -0.669689 -0.028235 -0.742105 0.000000
0.001954 0.009547 0.001374 -0.000147 0.012696 -0.999919 0.000000
-0.014137 -0.009364 0.074993 -0.826175 -0.563377 -0.006413 0.000000
0.003794 -0.003296 0.001346 -0.002920 0.005971 -0.999978 0.000000
-0.002315 0.019308 0.162200 -0.255387 0.966829 0.004334 0.000000
0.021359 0.001143 0.246005 0.752907 0.065506 -0.654859 0.000000
-0.017209 0.001226 0.230583 -0.999682 0.019220 -0.016326 0.000000
0.010536 0.017647 0.228911 0.427582 0.903809 0.017427 0.000000
0.016274 0.013375 0.145868 0.801620 0.597810 -0.005366 0.000000
0.005285 0.019487 0.237863 0.224712 0.974356 -0.011624 0.000000
0.017162 -0.010778 0.151399 0.753107 -0.657897 0.000650 0.000000
-0.006308 -0.016746 0.173363 -0.569812 -0.821775 0.000215 0.000000
0.006846 -0.017682 0.132984 0.199023 -0.979991 0.002667 0.000000
-0.008036 0.016969 0.137837 -0.563975 0.825682 0.013451 0.000000
-0.012188 -0.011917 0.097139 -0.730688 -0.682674 0.007142 0.000000
-0.002830 -0.015023 0.002220 -0.052759 -0.315627 -0.947416 0.000000
0.010633 0.017913 0.241127 0.313681 0.949499 0.007422 0.000000
-0.016076 0.006896 0.139816 -0.940672 0.339213 -0.008363 0.000000
0.007783 -0.017368 0.215393 0.321156 -0.947017 -0.004187 0.000000
-0.009362 -0.014655 0.038575 -0.491973 -0.870553 -0.009984 0.000000
0.004093 0.028119 0.272091 0.145222 0.989348 -0.010034 0.000000
0.020952 0.000480 0.222976 0.999140 -0.041435 0.001384 0.000000
0.009095 0.018743 0.170846 0.534653 0.845068 0.002432 0.000000
-0.008106 -0.015549 0.218080 -0.552148 -0.833745 -0.000863 0.000000
0.004638 0.027991 0.300755 0.122010 0.992505 0.006867 0.000000
-0.017805 -0.017834 0.266433 -0.738052 -0.658677 -0.146369 0.000000
0.020959 -0.002036 0.068333 0.998458 -0.055511 0.000148 0.000000
0.003746 -0.018221 0.053922 0.085165 -0.996365 -0.001906 0.000000
0.020358 0.019792 0.264357 0.700386 0.686077 -0.196871 0.000000
0.017336 -0.010556 0.086993 0.806735 -0.590913 0.000147 0.000000
0.002603 -0.025272 0.261464 0.005788 -0.968928 -0.247275 0.000000
-0.018497 0.018624 0.267348 -0.718292 0.683379 -0.130578 0.000000
0.003006 0.019972 0.023961 -0.027947 0.999552 0.010673 0.000000
0.003606 0.023705 0.252675 0.114741 0.913139 -0.391168 0.000000
0.016563 -0.011637 0.024805 0.776646 -0.629899 -0.006923 0.000000
0.003063 0.019734 0.230879 0.041555 0.999125 0.004677 0.000000
-0.007974 -0.015505 0.066336 -0.569077 -0.822281 0.002215 0.000000
0.026321 0.014028 0.285657 0.782271 0.431946 0.448860 0.000000
-0.000531 0.019826 0.063681 -0.251528 0.967849 -0.001777 0.000000
-0.017405 0.000755 0.210128 -0.988276 0.152659 -0.002362 0.000000
-0.013313 -0.010491 0.042586 -0.813037 -0.582211 -0.000537 0.000000
-0.021341 -0.014200 0.296591 -0.863387 -0.504530 -0.003573 0.000000
-0.014415 -0.009305 0.204630 -0.886996 -0.461776 0.001271 0.000000
-0.013873 0.011357 0.102753 -0.866400 0.499350 -0.000346 0.000000
0.010662 -0.016286 0.133447 0.364368 -0.931214 -0.008764 0.000000
0.024024 -0.015681 0.298890 0.755344 -0.655297 0.006418 0.000000
-0.014788 0.009857 0.141036 -0.895904 0.444248 0.000360 0.000000
-0.024611 0.008465 0.272289 -0.962964 0.269308 -0.013177 0.000000
0.019187 0.008651 0.171126 0.911813 0.409634 0.028223 0.000000
-0.015861 -0.005782 0.034307 -0.929953 -0.367600 -0.007572 0.000000
-0.005231 -0.017023 0.240413 -0.454628 -0.890466 0.019589 0.000000
0.021051 0.002351 0.098479 0.999964 0.008453 -0.000547 0.000000
0.003011 0.019865 0.050358 0.110991 0.993789 -0.008022 0.000000
0.012971 -0.009184 0.001611 0.249057 -0.215359 -0.944241 0.000000
-0.012256 0.013432 0.016347 -0.745597 0.666061 -0.021151 0.000000
0.019815 -0.005867 0.139306 0.935169 -0.354185 0.003352 0.000000
0.006617 0.019212 0.182767 0.205346 0.978683 -0.003456 0.000000
0.020901 -0.001163 0.179933 0.998190 -0.060130 -0.001114 0.000000
0.020600 -0.003910 0.048424 0.988979 -0.147874 0.007386 0.000000
0.001316 -0.016818 0.299424 0.003415 -0.002833 0.999990 0.000000
0.026738 0.005346 0.304324 -0.624156 -0.092882 0.775759 0.000000
0.011508 -0.015699 0.212078 0.519390 -0.854497 0.008277 0.000000
-0.019783 0.015293 0.261503 -0.818604 0.522208 -0.239138 0.000000
0.020915 -0.001778 0.137838 0.974829 -0.222938 -0.002803 0.000000
0.020095 -0.005845 0.064932 0.975328 -0.220617 0.007946 0.000000
0.014950 -0.013187 0.009197 0.666558 -0.745400 0.008893 0.000000
-0.014568 0.022837 0.279712 -0.643261 0.764484 0.042176 0.000000
-0.022414 -0.012488 0.274527 -0.904084 -0.427343 0.003187 0.000000
-0.005525 0.018263 0.154336 -0.368009 0.929817 -0.003090 0.000000
-0.007930 -0.015661 0.214196 -0.552148 -0.833745 -0.000863 0.000000
0.018737 -0.020946 0.283141 0.646638 -0.762759 -0.007586 0.000000
0.012948 -0.000289 0.299450 0.000190 -0.002400 0.999997 0.000000
0.025020 0.015417 0.292340 0.858840 0.512202 -0.006646 0.000000
0.000237 -0.026753 0.284067 -0.054028 -0.998202 -0.025967 0.000000
0.007364 -0.017465 0.107990 0.287278 -0.957767 -0.012369 0.000000
0.007306 0.019007 0.204171 0.318883 0.947791 -0.002435 0.000000
0.016730 -0.011285 0.214853 0.736139 -0.676798 0.006601 0.000000
0.001119 -0.018268 0.085944 -0.040326 -0.999185 -0.001584 0.000000
-0.006047 -0.025743 0.296115 -0.360433 -0.932679 -0.014077 0.000000
-0.008470 -0.018992 0.250933 -0.408074 -0.813369 -0.414616 0.000000
0.004858 -0.018153 0.174485 0.076092 -0.997101 -0.000505 0.000000
-0.009089 0.004545 0.299498 0.000269 -0.003028 0.999995 0.000000
-0.017029 -0.001965 0.206716 -0.996428 -0.084332 -0.004346 0.000000
-0.006864 0.017700 0.027411 -0.439534 0.898216 0.004179 0.000000
-0.001774 0.019423 0.245317 -0.147161 0.950131 -0.274944 0.000000
-0.012315 0.024205 0.270926 -0.475644 0.878545 -0.043828 0.000000
-0.005248 0.011142 0.001431 -0.009664 0.014049 -0.999855 0.000000
0.004666 -0.025832 0.264952 0.109391 -0.981878 -0.154758 0.000000
0.021098 0.000800 0.073906 0.999905 0.012508 0.005853 0.000000
0.000931 -0.018279 0.155082 -0.065249 -0.997869 -0.000781 0.000000
0.011778 0.021959 0.253657 0.405920 0.838228 -0.364146 0.000000
0.023048 0.014907 0.259420 0.819761 0.479305 -0.313462 0.000000
0.006530 0.026499 0.262668 0.205561 0.960115 -0.189534 0.000000
0.018877 -0.007973 0.212955 0.865479 -0.500926 -0.004283 0.000000
-0.012310 0.013341 0.111713 -0.725807 0.687835 -0.009367 0.000000
0.024109 0.016509 0.269867 0.794195 0.605171 -0.054984 0.000000
-0.014017 0.011532 0.226518 -0.752722 0.658334 0.002407 0.000000
0.023457 -0.015755 0.268993 0.781767 -0.618023 -0.082993 0.000000
-0.017152 -0.000373 0.204104 -0.996428 -0.084332 -0.004346 0.000000
0.016745 -0.011198 0.195140 0.747325 -0.664450 -0.003286 0.000000
-0.016877 -0.003338 0.245358 -0.965579 -0.260100 0.002086 0.000000
0.003370 0.019820 0.096441 0.142457 0.989754 -0.009652 0.000000
-0.021874 -0.006091 0.256613 -0.900475 -0.275022 -0.336908 0.000000
-0.000214 -0.017853 0.005642 -0.088336 -0.991576 -0.094736 0.000000
0.000087 0.019863 0.107306 0.015841 0.999844 -0.007803 0.000000
0.011029 -0.016055 0.144855 0.382372 -0.923988 0.006115 0.000000
-0.021594 0.015172 0.279499 -0.826462 0.561261 -0.044109 0.000000
-0.012241 -0.012271 0.163957 -0.825111 -0.564966 -0.002431 0.000000
-0.010002 -0.014082 0.109635 -0.596487 -0.802404 0.018755 0.000000
0.010752 -0.016270 0.020279 0.534156 -0.845066 0.023252 0.000000
0.015105 -0.013506 0.158772 0.528737 -0.848775 -0.004223 0.000000
0.006076 0.019755 0.019351 0.359145 0.933201 0.012295 0.000000
0.006173 0.027828 0.279013 0.176193 0.984126 0.021271 0.000000
0.018497 -0.008772 0.087255 0.886023 -0.463638 -0.001743 0.000000
-0.006337 0.017999 0.019776 -0.491981 0.870605 0.001264 0.000000
-0.006952 0.007921 0.299499 0.003754 0.001357 0.999992 0.000000
-0.002462 0.019368 0.018634 -0.211910 0.977116 0.018411 0.000000
0.002148 0.019688 0.157454 0.010656 0.999380 0.033560 0.000000
-0.016949 0.002697 0.032518 -0.990953 0.134201 0.001620 0.000000
-0.014545 -0.008885 0.159754 -0.827769 -0.561069 -0.000286 0.000000
0.020118 -0.005476 0.032781 0.938656 -0.344822 0.004867 0.000000
0.018134 -0.009363 0.139981 0.864237 -0.503084 -0.001187 0.000000
-0.021294 0.007236 0.254952 -0.896905 0.260431 -0.357402 0.000000
0.012964 -0.014847 0.132361 0.539595 -0.841925 0.000519 0.000000
-0.020151 -0.003316 0.299489 0.787370 0.463710 0.406228 0.000000
0.010649 -0.016101 0.233702 0.448576 -0.893686 -0.010225 0.000000
-0.016774 0.004385 0.161700 -0.983167 0.182599 -0.006390 0.000000
0.020229 -0.004687 0.179158 0.977751 -0.209764 -0.001528 0.000000
0.002423 0.006569 0.299477 -0.000629 -0.002057 0.999998 0.000000
0.013955 0.025298 0.300973 0.459759 0.887952 0.012759 0.000000
-0.012957 -0.008307 0.217710 -0.890571 -0.346759 0.294348 0.000000
-0.014398 -0.020388 0.264484 -0.617926 -0.769972 -0.159090 0.000000
0.028785 0.005171 0.303079 0.951978 0.168824 0.255413 0.000000
-0.015780 0.007815 0.017143 -0.959578 0.281373 -0.006375 0.000000
0.006384 0.019322 0.105907 0.265119 0.964215 -0.001523 0.000000
0.013554 -0.024144 0.279530 0.432996 -0.901364 0.007504 0.000000
0.006138 -0.017842 0.214221 0.214966 -0.976604 -0.005912 0.000000
0.011560 -0.007663 0.001323 0.001368 0.010612 -0.999943 0.000000
0.003390 -0.018259 0.080890 0.064513 -0.997888 0.007549 0.000000
-0.008999 0.016373 0.067585 -0.627929 0.778099 0.016353 0.000000
0.020554 -0.003195 0.172680 0.979110 -0.203284 0.004359 0.000000
0.027784 -0.004396 0.263367 0.956675 -0.249633 -0.149854 0.000000
-0.000062 0.024728 0.255104 -0.089765 0.945105 -0.314196 0.000000
0.005363 -0.018108 0.023454 0.269601 -0.962451 0.031679 0.000000
0.008537 0.018830 0.012701 0.291389 0.952256 0.091106 0.000000
0.006656 0.027737 0.295904 0.206549 0.978424 0.004834 0.000000
-0.016403 0.005257 0.006177 -0.973976 0.222662 -0.042324 0.000000
0.005787 0.019361 0.204797 0.209912 0.977640 0.012510 0.000000
0.003785 -0.018223 0.073507 0.033399 -0.999427 -0.005411 0.000000
-0.025704 -0.001399 0.300266 -0.999909 0.011695 0.006662 0.000000
0.023182 0.003288 0.249338 0.885522 0.054471 -0.461393 0.000000
-0.024570 0.008638 0.278684 -0.951445 0.307794 -0.003915 0.000000
-0.017040 0.001471 0.018232 -0.999926 -0.006549 0.010268 0.000000
0.016634 -0.011426 0.117718 0.794836 -0.606791 0.006335 0.000000
0.019815 -0.006371 0.020111 0.943020 -0.332680 -0.006091 0.000000
-0.006345 0.017912 0.110499 -0.377453 0.926023 -0.003231 0.000000
0.007648 -0.002958 0.299452 0.001670 -0.001666 0.999997 0.000000
0.018891 -0.008275 0.038771 0.892767 -0.450470 -0.006699 0.000000
0.018825 0.009792 0.223412 0.927790 0.372784 0.015422 0.000000
0.013550 0.025523 0.297771 0.450198 0.892918 0.004293 0.000000
-0.017164 -0.000431 0.212701 -0.997772 -0.066348 -0.007018 0.000000
-0.015523 -0.003614 0.218075 -0.933826 -0.350032 -0.073802 0.000000
0.012680 -0.014989 0.237594 0.610087 -0.792046 0.021392 0.000000
0.018445 -0.009111 0.026124 0.888810 -0.458276 -0.000240 0.000000
0.029197 0.002628 0.278153 0.998904 0.046697 0.003146 0.000000
0.020642 0.010533 0.248867 0.781062 0.429499 -0.453291 0.000000
-0.017138 0.002073 0.099266 -0.998407 -0.056381 -0.002340 0.000000
-0.025115 -0.005460 0.291661 -0.989442 -0.144927 0.000468 0.000000
0.018857 0.009452 0.240906 0.869474 0.493924 0.007389 0.000000
0.021758 0.016792 0.260034 0.780739 0.569359 -0.257441 0.000000
0.001027 -0.018339 0.088507 -0.157883 -0.987424 -0.008184 0.000000
0.003971 0.025231 0.256608 0.111342 0.954007 -0.278342 0.000000
-0.025661 0.002340 0.285548 -0.998685 0.049280 0.014161 0.000000
-0.003628 0.018955 0.123488 -0.250556 0.968051 0.009982 0.000000
-0.000298 0.023676 0.252660 -0.072987 0.915074 -0.396628 0.000000
0.017137 0.021216 0.259547 0.639277 0.732791 -0.233115 0.000000
0.020927 0.005150 0.163401 0.999890 0.014470 0.003271 0.000000
0.009991 0.026964 0.290728 0.255010 0.966905 -0.007982 0.000000
0.017390 0.012107 0.036755 0.805273 0.592898 -0.002593 0.000000
0.011031 -0.016076 0.085406 0.394459 -0.918893 0.006077 0.000000
0.018610 -0.008431 0.202170 0.864488 -0.502652 0.001095 0.000000
-0.024326 -0.006724 0.267826 -0.942925 -0.315595 -0.106265 0.000000
0.020233 -0.005587 0.059673 0.885527 -0.464585 0.001514 0.000000
-0.004491 0.018747 0.156519 -0.260144 0.965567 0.002413 0.000000
-0.003240 0.025470 0.304250 0.110868 -0.539539 0.834629 0.000000
0.015215 0.014740 0.052708 0.785900 0.618266 -0.010431 0.000000
0.012933 0.016350 0.211709 0.631111 0.775690 -0.001928 0.000000
0.010808 -0.016148 0.076131 0.429648 -0.902965 0.007482 0.000000
0.011920 0.026241 0.299397 0.355610 0.934615 -0.006065 0.000000
-0.024084 0.010103 0.282722 -0.929972 0.367211 0.017549 0.000000
0.011157 0.017568 0.089379 0.553037 0.833156 -0.001230 0.000000
0.015062 -0.013226 0.034062 0.650116 -0.759775 -0.009539 0.000000
0.015308 0.014436 0.222624 0.623104 0.782123 0.005030 0.000000
-0.013159 0.012347 0.144896 -0.752958 0.657985 0.010437 0.000000
0.026731 0.012887 0.301198 0.950845 0.309663 0.001311 0.000000
-0.004524 0.018739 0.156468 -0.260144 0.965567 0.002413 0.000000
0.022587 -0.000638 0.248037 0.873607 -0.007302 -0.486578 0.000000
-0.002159 0.019578 0.167908 -0.360288 0.932835 0.003455 0.000000
0.026807 0.011611 0.287847 0.863781 0.375229 -0.336282 0.000000
0.019171 0.009436 0.024143 0.867299 0.497704 0.009128 0.000000
0.009913 0.002895 0.299462 0.000489 -0.002046 0.999998 0.000000
0.019485 -0.006973 0.008443 0.911237 -0.411790 0.008738 0.000000
-0.008183 0.017132 0.199921 -0.395013 0.918674 0.001795 0.000000
0.010053 0.025613 0.262253 0.358261 0.914355 -0.188690 0.000000
0.015504 -0.012678 0.228062 0.656100 -0.754665 0.003714 0.000000
0.008157 0.027427 0.294660 0.206549 0.978424 0.004834 0.000000
-0.025618 -0.001536 0.294181 -0.996387 -0.084553 0.008026 0.000000
0.017004 0.012376 0.233457 0.795456 0.606000 0.003858 0.000000
-0.025543 -0.002889 0.276145 -0.996771 -0.079778 -0.009120 0.000000
-0.016391 0.005639 0.042025 -0.965897 0.258928 -0.000155 0.000000
0.003957 0.019688 0.128075 0.075649 0.997129 -0.003391 0.000000
-0.001357 0.009405 0.001380 -0.002931 0.017250 -0.999847 0.000000
0.014786 0.014899 0.144354 0.724255 0.689423 0.012254 0.000000
0.012415 0.020888 0.300499 -0.442777 -0.870099 0.216510 0.000000
-0.008679 0.016655 0.047083 -0.644389 0.764698 0.000226 0.000000
0.015086 -0.013036 0.012108 0.668300 -0.743852 0.007691 0.000000
-0.012005 -0.016502 0.250362 -0.534768 -0.705106 -0.465670 0.000000
-0.025471 -0.003452 0.285238 -0.995992 -0.089406 0.002333 0.000000
0.025790 -0.012746 0.285315 0.851468 -0.524387 0.004624 0.000000
-0.013421 0.012062 0.166191 -0.761591 0.648031 -0.005958 0.000000
-0.015317 -0.007486 0.198531 -0.911392 -0.411264 -0.015064 0.000000
0.014979 0.014750 0.074867 0.645423 0.763787 0.007586 0.000000
0.024312 -0.014956 0.287180 0.835852 -0.547680 0.037388 0.000000
-0.016963 -0.000542 0.040209 -0.996529 -0.083175 -0.003493 0.000000
-0.013233 -0.010973 0.192487 -0.840677 -0.540791 -0.028409 0.000000
0.026070 0.013610 0.275586 0.873675 0.486493 0.003907 0.000000
-0.003926 0.018907 0.117989 -0.363365 0.931646 0.001376 0.000000
-0.020233 -0.007232 0.253185 -0.881589 -0.244382 -0.403829 0.000000
0.019804 0.007558 0.184183 0.959278 0.282395 -0.006208 0.000000
-0.002846 -0.017673 0.115370 -0.247012 -0.969004 0.003905 0.000000
0.021203 0.000231 0.010479 0.999044 -0.043551 -0.003705 0.000000
-0.009823 0.015805 0.180866 -0.554072 0.832469 0.000569 0.000000
0.016331 -0.013357 0.246989 0.656568 -0.589895 -0.470045 0.000000
0.020061 0.006808 0.126860 0.956156 0.292780 0.006715 0.000000
-0.000996 -0.022591 0.253570 -0.088718 -0.925544 -0.368099 0.000000
0.013886 0.015665 0.082772 0.617804 0.786178 -0.015551 0.000000
0.009283 0.018243 0.139049 0.378015 0.925674 -0.015210 0.000000
0.009906 0.025252 0.260798 0.380131 0.895533 -0.231346 0.000000
-0.017227 0.000241 0.195756 -0.998221 0.059195 -0.007132 0.000000
0.014983 0.014666 0.229141 0.719408 0.694588 0.000216 0.000000
0.018375 -0.009319 0.041639 0.894503 -0.447053 0.003012 0.000000
0.019935 -0.005904 0.171676 0.889533 -0.456843 -0.005128 0.000000
0.018799 0.009484 0.171609 0.900730 0.433594 -0.026102 0.000000
-0.014186 0.010929 0.144307 -0.823452 0.567229 -0.013343 0.000000
-0.009675 -0.014434 0.184506 -0.582653 -0.812709 0.004370 0.000000
0.018922 0.009474 0.238446 0.926479 0.376343 0.001427 0.000000
-0.002839 -0.017714 0.128346 -0.309592 -0.950860 -0.004174 0.000000
0.013853 -0.011045 0.002370 0.476610 -0.543206 -0.691209 0.000000
-0.011834 -0.017045 0.250987 -0.534768 -0.705106 -0.465670 0.000000
0.004179 -0.018200 0.210159 0.065961 -0.997812 0.004534 0.000000
0.002680 0.027113 0.263504 0.028958 0.982175 -0.185724 0.000000
0.003150 -0.018241 0.153841 0.040523 -0.999152 -0.007326 0.000000
0.015239 0.014812 0.007381 0.646135 0.763208 0.004851 0.000000
0.011395 -0.015875 0.022399 0.524730 -0.851217 -0.009367 0.000000
-0.017212 0.003764 0.066412 -0.998394 -0.056574 0.002869 0.000000
-0.004680 0.018764 0.127686 -0.454298 0.890848 -0.002079 0.000000
0.027811 0.008438 0.267443 0.965228 0.213611 -0.150683 0.000000
-0.016812 -0.002461 0.234135 -0.941278 -0.322407 -0.100249 0.000000
-0.016042 -0.005327 0.059468 -0.938584 -0.345021 -0.004475 0.000000
0.002559 0.019786 0.150311 0.022001 0.999753 -0.003098 0.000000
0.025104 0.015323 0.298358 0.848092 0.529823 0.005308 0.000000
0.012101 0.009587 0.001385 0.002205 0.013179 -0.999911 0.000000
0.000487 0.007445 0.299478 -0.000629 -0.002057 0.999998 0.000000
0.018213 0.010880 0.196879 0.776873 0.629635 -0.005305 0.000000
-0.008894 0.026093 0.275531 -0.323308 0.946131 -0.017547 0.000000
0.012251 -0.015373 0.031395 0.556280 -0.830975 0.005864 0.000000
-0.015861 -0.005620 0.006815 -0.945928 -0.323011 0.029746 0.000000
0.018754 -0.007532 0.004876 0.848929 -0.385714 -0.361309 0.000000
0.007440 -0.017485 0.171798 0.313468 -0.949599 -0.000450 0.000000
0.010277 0.001017 0.001504 0.032390 -0.034482 -0.998880 0.000000
0.013875 0.025493 0.298724 0.355610 0.934615 -0.006065 0.000000
-0.024905 0.007787 0.295152 -0.937636 0.347147 -0.018080 0.000000
0.014238 -0.013816 0.010671 0.676233 -0.736615 -0.010350 0.000000
0.010569 -0.025454 0.300235 0.257621 -0.966242 0.002691 0.000000
-0.014656 0.010143 0.172276 -0.858875 0.512168 0.004226 0.000000
0.018130 0.022797 0.273773 0.585218 0.810816 -0.009821 0.000000
-0.013912 -0.009538 0.012221 -0.870282 -0.483354 0.094749 0.000000
-0.017051 -0.000900 0.132404 -0.997576 -0.066204 0.021416 0.000000
0.015981 0.017515 0.250139 0.631882 0.647798 -0.425537 0.000000
0.005065 0.006861 0.001340 -0.000147 0.012696 -0.999919 0.000000
0.014877 -0.023492 0.293350 0.465224 -0.885193 0.000471 0.000000
-0.000852 0.019733 0.186029 -0.261395 0.965227 -0.003120 0.000000
0.007311 0.019039 0.153108 0.257524 0.966272 -0.000197 0.000000
0.015158 0.014843 0.012818 0.607112 0.779861 0.152420 0.000000
0.019415 -0.007161 0.053853 0.887580 -0.460654 -0.000693 0.000000
-0.014982 0.009354 0.084619 -0.890598 0.454785 0.002439 0.000000
0.004981 -0.018107 0.220995 0.212883 -0.977075 0.002156 0.000000
0.024951 -0.008155 0.257259 0.885057 -0.333787 -0.324437 0.000000
-0.014925 -0.008296 0.142636 -0.828173 -0.560395 0.009363 0.000000
-0.016751 0.004134 0.045749 -0.989304 0.145869 -0.000495 0.000000
-0.009164 -0.014702 0.145926 -0.566449 -0.824090 -0.003449 0.000000
0.005845 -0.026518 0.296948 0.131986 -0.991171 0.012600 0.000000
-0.000848 0.019701 0.017005 -0.159671 0.987104 -0.011471 0.000000
-0.019066 -0.015388 0.263026 -0.766169 -0.602938 -0.222376 0.000000
0.024502 0.005751 0.253073 0.889027 0.185681 -0.418513 0.000000
-0.016491 -0.004196 0.105801 -0.937270 -0.348208 -0.016613 0.000000
-0.008198 -0.015385 0.152526 -0.563266 -0.826274 -0.001674 0.000000
0.021142 -0.000747 0.089614 0.978631 -0.205616 -0.001701 0.000000
0.020308 0.006014 0.105428 0.965103 0.261773 0.007162 0.000000
0.012593 -0.015087 0.087731 0.534297 -0.845297 -0.000340 0.000000
0.022462 -0.014063 0.259266 0.776428 -0.575501 -0.256822 0.000000
-0.008442 -0.013534 0.003542 -0.397098 -0.626594 -0.670591 0.000000
-0.016011 0.011967 0.299521 -0.010696 0.012703 0.999862 0.000000
0.002774 0.019755 0.207772 0.048842 0.998792 0.005433 0.000000
-0.002456 -0.017807 0.159042 -0.302692 -0.953088 0.001370 0.000000
0.006928 -0.017587 0.201281 0.253874 -0.967117 -0.015257 0.000000
0.002284 -0.026790 0.295167 -0.015459 -0.999848 0.008012 0.000000
-0.014449 0.010486 0.023406 -0.877050 0.480052 -0.018233 0.000000
-0.001980 -0.017903 0.173673 -0.156058 -0.987702 -0.009518 0.000000
0.010509 0.026747 0.298309 0.271841 0.962341 -0.001729 0.000000
0.003753 -0.018141 0.007318 0.014203 -0.999853 -0.009561 0.000000
-0.000324 0.019745 0.182964 -0.034086 0.999407 0.004931 0.000000
0.018380 0.010355 0.209780 0.851860 0.523768 -0.001146 0.000000
0.015570 -0.012746 0.046427 0.754111 -0.656741 0.002739 0.000000
0.003305 0.019761 0.083775 0.070309 0.997517 -0.004187 0.000000
0.012262 0.016780 0.208314 0.532260 0.846551 -0.007176 0.000000
-0.017078 0.002394 0.076140 -0.982381 0.186858 0.003370 0.000000
-0.000021 -0.018239 0.199192 -0.125954 -0.992034 -0.002278 0.000000
-0.020445 0.016898 0.274708 -0.823165 0.567799 -0.001793 0.000000
-0.022333 0.013933 0.294843 -0.887171 0.461437 -0.001717 0.000000
-0.004773 0.018676 0.182262 -0.256736 0.966479 0.002255 0.000000
-0.002265 -0.021267 0.251003 -0.209986 -0.883221 -0.419317 0.000000
0.019784 0.008082 0.008100 0.915982 0.401206 -0.003254 0.000000
0.027810 -0.006301 0.304008 0.552956 -0.109694 0.825958 0.000000
-0.014161 0.010859 0.106573 -0.866400 0.499350 -0.000346 0.000000
0.016232 -0.011805 0.104391 0.763520 -0.644605 0.039008 0.000000
0.018355 -0.018809 0.259864 0.608055 -0.750974 -0.257502 0.000000
-0.001670 -0.017835 0.013976 -0.158238 -0.951527 -0.263738 0.000000
0.005523 0.019750 0.115514 0.345855 0.938285 0.002268 0.000000
-0.012419 -0.016197 0.299544 0.055533 0.062968 0.996469 0.000000
-0.003987 0.018943 0.241411 -0.211654 0.977342 0.002068 0.000000
-0.015031 -0.021072 0.289982 -0.610812 -0.791774 -0.001327 0.000000
-0.015368 0.022004 0.270388 -0.607447 0.789711 -0.085814 0.000000
0.013429 0.025428 0.270005 0.407155 0.907593 -0.102473 0.000000
-0.024302 0.009646 0.299448 -0.922410 0.386144 0.007285 0.000000
-0.005032 0.018514 0.066280 -0.439686 0.898117 -0.007834 0.000000
-0.015135 0.009387 0.222527 -0.870531 0.492098 -0.003841 0.000000
-0.002925 0.019225 0.032483 -0.268388 0.963310 0.000988 0.000000
0.014056 0.015428 0.181036 0.614151 0.789188 0.000717 0.000000
0.008984 0.018428 0.142856 0.378015 0.925674 -0.015210 0.000000
-0.004884 0.018628 0.074155 -0.439517 0.898041 0.018622 0.000000
0.010566 0.017765 0.092203 0.416858 0.908956 -0.005262 0.000000
0.019924 -0.005946 0.165017 0.886276 -0.463096 0.007519 0.000000
0.009001 0.018491 0.184635 0.443304 0.896360 0.004563 0.000000
0.021539 0.019844 0.292238 0.727981 0.685597 -0.000308 0.000000
0.012779 -0.014977 0.137648 0.529623 -0.848186 0.008999 0.000000
0.001668 -0.018297 0.179952 -0.024004 -0.999710 0.001657 0.000000
-0.000859 0.019561 0.229320 -0.139048 0.990270 0.005565 0.000000
-0.017665 -0.013192 0.254580 -0.763763 -0.561810 -0.317860 0.000000
0.019762 -0.006047 0.156627 0.928622 -0.370971 0.006503 0.000000
0.020735 0.003711 0.211503 0.980590 0.196024 0.004169 0.000000
-0.024289 -0.006875 0.267163 -0.972869 -0.203731 -0.109637 0.000000
0.019893 -0.006055 0.055656 0.948815 -0.315750 -0.007231 0.000000
0.020603 0.004787 0.160576 0.963498 0.267615 0.007308 0.000000
0.027691 -0.008553 0.285114 0.947292 -0.320314 -0.006001 0.000000
-0.013616 0.023287 0.287065 -0.588761 0.754990 0.288706 0.000000
-0.004032 0.018835 0.070793 -0.336483 0.941662 0.007100 0.000000
0.020544 0.005995 0.014832 0.985816 0.166347 -0.022258 0.000000
0.021708 0.009437 0.299541 -0.140403 -0.060095 0.988269 0.000000
-0.016567 0.021194 0.298469 -0.638609 0.769522 0.003736 0.000000
-0.016178 -0.005075 0.091395 -0.974131 -0.225982 0.000677 0.000000
-0.007066 0.017542 0.215265 -0.464768 0.885395 -0.008185 0.000000
0.013999 0.015476 0.204027 0.628096 0.778136 0.000204 0.000000
-0.005100 -0.010349 0.001341 -0.002088 -0.002037 -0.999996 0.000000
0.018982 -0.007750 0.213162 0.872040 -0.489434 0.000970 0.000000
0.011427 -0.015877 0.124206 0.398874 -0.917005 -0.001495 0.000000
0.000472 -0.026546 0.303336 -0.023735 -0.934633 0.354821 0.000000
0.016217 -0.012015 0.043630 0.754178 -0.656665 0.002684 0.000000
0.019269 -0.007422 0.073020 0.911386 -0.411525 0.004736 0.000000
0.027612 0.010252 0.275391 0.952286 0.305185 -0.003626 0.000000
0.003635 -0.018225 0.117183 0.075997 -0.996949 0.017796 0.000000
0.014095 -0.010646 0.299438 -0.001058 -0.002406 0.999997 0.000000
0.020930 -0.002639 0.012692 0.992203 -0.060224 0.109113 0.000000
-0.003264 -0.026341 0.298071 -0.150620 -0.988497 0.013691 0.000000
0.023959 0.016924 0.303196 0.797314 0.603480 0.010110 0.000000
0.010053 -0.001935 0.299446 0.001257 0.001021 0.999999 0.000000
0.020705 0.005561 0.150700 0.996429 0.082973 0.015661 0.000000
0.006582 0.019435 0.178077 0.402296 0.915440 0.011314 0.000000
-0.015878 0.021831 0.290410 -0.606856 0.794475 0.023148 0.000000
-0.017228 0.002192 0.218483 -0.984979 0.172599 -0.005045 0.000000
0.028656 -0.005263 0.294796 0.966438 -0.256570 0.012983 0.000000
0.014218 0.015281 0.093007 0.647496 0.761543 0.028305 0.000000
-0.000656 -0.018100 0.098942 -0.167785 -0.985605 0.020745 0.000000
-0.012354 0.013344 0.021875 -0.755563 0.655039 0.007009 0.000000
0.017192 0.012304 0.131445 0.839144 0.543908 -0.001234 0.000000
0.016127 0.013666 0.060922 0.746641 0.665132 0.011249 0.000000
0.007045 0.019151 0.154029 0.339474 0.940613 -0.002024 0.000000
0.009210 -0.020035 0.250403 0.271599 -0.862187 -0.427630 0.000000
0.010199 0.018239 0.007824 0.458188 0.888669 0.018212 0.000000
-0.007565 0.017534 0.143975 -0.637356 0.770433 0.014526 0.000000
-0.015963 0.007011 0.052923 -0.940535 0.339690 0.001845 0.000000
0.013446 -0.014859 0.229052 0.739260 -0.673417 -0.001860 0.000000
0.009524 0.018170 0.178954 0.348737 0.937088 -0.015755 0.000000
0.013844 0.015606 0.244250 0.630703 0.776012 -0.004343 0.000000
0.029283 0.000986 0.293324 0.997072 0.076425 0.002704 0.000000
-0.017156 -0.003153 0.228980 -0.914127 -0.070348 0.399278 0.000000
-0.016705 0.005401 0.216250 -0.936587 0.350406 0.004502 0.000000
0.003972 -0.018191 0.017433 0.102220 -0.994537 -0.021141 0.000000
-0.008224 0.016901 0.034707 -0.582966 0.812494 0.002041 0.000000
0.014397 0.013729 0.299481 0.000032 -0.001628 0.999999 0.000000
-0.005502 0.021744 0.250793 -0.227805 0.878770 -0.419366 0.000000
0.010177 0.018002 0.065144 0.448744 0.893536 -0.014879 0.000000
0.011231 -0.014011 0.299430 -0.005455 0.003000 0.999981 0.000000
-0.015944 -0.005889 0.237758 -0.881376 -0.438272 -0.176337 0.000000
0.001622 -0.018377 0.234877 0.049072 -0.998793 0.002266 0.000000
0.028683 -0.005057 0.297611 0.965838 -0.259052 0.007023 0.000000
-0.008574 -0.014743 0.005540 -0.509018 -0.762622 -0.399135 0.000000
-0.005651 -0.016717 0.169381 -0.385567 -0.922676 0.002609 0.000000
0.001695 0.019802 0.149412 0.022001 0.999753 -0.003098 0.000000
0.011452 0.017441 0.027904 0.498318 0.866982 0.004546 0.000000
-0.006728 0.003652 0.299494 0.000269 -0.003028 0.999995 0.000000
0.014150 -0.014112 0.161146 0.528737 -0.848775 -0.004223 0.000000
0.007127 0.017777 0.003212 0.218675 0.639703 -0.736859 0.000000
0.028341 0.008002 0.277376 0.980022 0.198802 0.005884 0.000000
0.015177 -0.012921 0.206021 0.681277 -0.731995 -0.006648 0.000000
0.012281 0.021796 0.299519 0.004455 -0.007219 0.999964 0.000000
-0.003531 -0.017436 0.087931 -0.353929 -0.934994 -0.022802 0.000000
-0.016249 0.006545 0.152574 -0.934237 0.356621 0.004725 0.000000
0.018691 0.009965 0.117918 0.875458 0.483294 0.000336 0.000000
-0.011324 -0.012878 0.150909 -0.700076 -0.713950 0.013021 0.000000
0.013360 -0.014572 0.090712 0.559212 -0.828897 -0.014561 0.000000
-0.015577 -0.006712 0.174537 -0.905535 -0.424078 0.012779 0.000000
0.010850 0.017639 0.101296 0.494359 0.869256 -0.001708 0.000000
-0.004094 0.018843 0.158178 -0.368009 0.929817 -0.003090 0.000000
0.011587 0.025397 0.264122 0.380131 0.895533 -0.231346 0.000000
-0.008143 0.026208 0.303138 -0.407489 0.836009 0.367481 0.000000
-0.005972 -0.014609 0.002695 -0.157077 -0.413407 -0.896895 0.000000
0.003654 -0.018262 0.202024 0.064978 -0.997882 0.002902 0.000000
0.015227 0.014376 0.239078 0.712414 0.701759 0.001160 0.000000
0.002770 0.028163 0.292874 0.052925 0.998594 -0.003122 0.000000
0.014491 -0.013671 0.052943 0.662099 -0.749390 0.006258 0.000000
0.012470 0.016734 0.190551 0.622995 0.782214 -0.004342 0.000000
-0.016233 -0.005121 0.114812 -0.916378 -0.400300 -0.003351 0.000000
0.004499 -0.018210 0.150415 0.034521 -0.999383 0.006467 0.000000
-0.000005 -0.018543 0.140572 -0.281629 -0.959523 -0.000578 0.000000
-0.015163 -0.007741 0.170746 -0.925267 -0.379178 -0.010227 0.000000
0.014222 0.015575 0.025640 0.616165 0.787606 0.004309 0.000000
0.021145 -0.001149 0.031793 0.981555 -0.191167 -0.002178 0.000000
0.018956 0.009485 0.118869 0.884551 0.466413 0.005248 0.000000
0.001878 0.019783 0.090623 -0.019157 0.999813 0.002642 0.000000
-0.020632 0.009377 0.303043 0.806822 -0.282782 0.518722 0.000000
0.022324 -0.010774 0.301938 -0.739446 0.417254 0.528317 0.000000
-0.011880 0.013855 0.207414 -0.692530 0.721181 0.017317 0.000000
0.014805 0.015139 0.193292 0.784472 0.620141 0.005413 0.000000
0.008014 -0.017306 0.240224 0.309571 -0.950801 -0.011990 0.000000
-0.009291 -0.014592 0.067233 -0.569077 -0.822281 0.002215 0.000000
-0.008704 -0.014942 0.054989 -0.561795 -0.827276 0.000298 0.000000
0.016152 0.013409 0.153982 0.771732 0.635671 -0.018745 0.000000
-0.010597 0.025232 0.299037 -0.449135 0.893409 -0.009885 0.000000
0.028145 0.008877 0.301474 0.927495 0.373834 -0.001151 0.000000
-0.000738 -0.011951 0.299469 -0.005036 -0.007428 0.999960 0.000000
0.021197 0.000188 0.023413 0.999256 0.038271 -0.004676 0.000000
-0.001487 0.028049 0.272613 -0.097140 0.995235 0.008382 0.000000
0.022232 -0.017499 0.270715 0.746795 -0.660730 -0.075723 0.000000
0.020215 -0.004987 0.070168 0.939684 -0.342033 -0.002710 0.000000
0.020076 -0.005868 0.190032 0.868435 -0.495616 0.013600 0.000000
0.028926 -0.003763 0.283489 0.983541 -0.177990 -0.031091 0.000000
0.021566 0.002010 0.299428 0.008119 0.003966 0.999959 0.000000
0.023000 0.018295 0.295129 0.727981 0.685597 -0.000308 0.000000
0.007030 -0.017627 0.097277 0.216337 -0.976317 0.001624 0.000000
-0.011193 -0.012944 0.027283 -0.709726 -0.704457 0.005431 0.000000
-0.010907 0.014758 0.020421 -0.709297 0.704618 0.020283 0.000000
0.020724 0.005050 0.017986 0.982690 0.185254 -0.001075 0.000000
-0.006584 0.026626 0.287488 -0.355648 0.900412 0.250544 0.000000
0.020963 0.000750 0.229119 0.999664 -0.025895 0.001005 0.000000
0.020966 0.003545 0.035249 0.982762 0.184871 0.001078 0.000000
0.020219 0.006130 0.228396 0.936656 0.349917 -0.015305 0.000000
-0.016271 -0.005109 0.188813 -0.971553 -0.236802 0.003094 0.000000
0.020898 -0.001297 0.193951 0.998694 -0.051097 0.000091 0.000000
0.007807 -0.017370 0.182021 0.312953 -0.949768 -0.000892 0.000000
-0.015600 -0.007041 0.241777 -0.913320 -0.407242 -0.000573 0.000000
0.018478 -0.008647 0.234131 0.852894 -0.521890 0.014269 0.000000
-0.002897 0.019362 0.209073 -0.114726 0.993369 0.007491 0.000000
-0.017022 -0.000573 0.123781 -0.995624 -0.091830 0.017347 0.000000
-0.014029 -0.009643 0.043714 -0.891793 -0.452416 0.004951 0.000000
0.014631 -0.013534 0.116113 0.619548 -0.784934 -0.006231 0.000000
-0.004424 -0.026125 0.300164 -0.278445 -0.960409 0.009062 0.000000
0.010364 0.017955 0.061733 0.411062 0.911606 -0.001595 0.000000
-0.008226 -0.015408 0.163352 -0.576862 -0.816840 -0.001361 0.000000
-0.019145 -0.013941 0.304349 0.394117 0.272021 0.877882 0.000000
0.002852 0.028159 0.290416 0.064040 0.997931 0.005787 0.000000
