# .PCD v.5 - Point Cloud Data file format
FIELDS x y z normal_x normal_y normal_z curvature
SIZE 4 4 4 4 4 4 4
TYPE F F F F F F F
WIDTH 731
HEIGHT 1
POINTS 731
DATA ascii
0.013103 0.016653 0.039021 0.580023 -0.004220 0.814590 0.000000
0.008889 -0.050429 0.043567 0.433915 0.018990 0.900754 0.000000
0.003258 0.149859 0.039487 0.081960 0.018257 0.996468 0.000000
-0.000599 -0.030561 0.044647 -0.099564 0.028069 0.994635 0.000000
-0.014896 0.117219 0.031752 -0.805289 0.013438 0.592730 0.000000
0.008655 -0.008768 0.007487 0.312952 -0.026691 -0.949394 0.000000
0.019904 -0.048411 0.023604 0.978682 -0.007465 -0.205245 0.000000
-0.012779 0.072963 0.035714 -0.720779 0.020130 0.692872 0.000000
-0.015082 -0.040807 0.036268 -0.849585 0.019106 0.527106 0.000000
-0.017037 0.042348 0.017470 -0.963411 0.004384 -0.267993 0.000000
-0.017763 0.097565 0.024906 -0.976806 0.017051 0.213444 0.000000
0.011940 -0.098451 0.052796 0.394744 0.024729 0.918458 0.000000
0.000816 -0.049099 0.045237 0.062262 0.010647 0.998003 0.000000
0.000056 0.026696 0.004984 -0.053222 -0.029901 -0.998135 0.000000
-0.004420 0.167785 0.001839 -0.310719 -0.038892 -0.949706 0.000000
0.006694 0.014813 0.042510 0.312043 0.029406 0.949613 0.000000
-0.005186 -0.124220 0.038336 0.003808 -0.999538 0.030168 0.000000
0.013502 0.038067 0.038056 0.653196 0.029089 0.756630 0.000000
-0.000107 -0.059895 0.007437 -0.064819 -0.018029 -0.997734 0.000000
0.019741 0.056239 0.019508 0.979182 -0.002660 -0.202968 0.000000
-0.013921 0.101230 0.034125 -0.877270 0.027847 0.479189 0.000000
-0.009151 -0.018613 0.009117 -0.582971 -0.022140 -0.812191 0.000000
-0.004949 -0.085411 0.002316 -0.164075 0.225201 -0.960398 0.000000
-0.015974 0.124227 0.012537 -0.843940 -0.019828 -0.536071 0.000000
0.020024 0.035486 0.021307 0.974828 -0.003672 -0.222927 0.000000
-0.017877 0.166382 0.020399 -0.999831 0.018394 -0.000661 0.000000
0.017285 0.062695 0.012973 0.853583 -0.013186 -0.520790 0.000000
-0.003787 -0.013075 0.006554 -0.371872 -0.040015 -0.927421 0.000000
0.028204 -0.125187 0.031365 0.989860 0.010832 0.141634 0.000000
0.018879 -0.033004 0.032280 0.935957 0.027806 0.351015 0.000000
-0.014809 0.136731 0.031738 -0.730150 0.015173 0.683118 0.000000
-0.011058 -0.128365 0.052174 -0.193853 -0.904632 0.379554 0.000000
-0.018033 -0.020283 0.024126 -0.997487 0.001404 -0.070841 0.000000
-0.016069 0.109035 0.029891 -0.901037 0.016868 0.433414 0.000000
-0.015787 0.008916 0.033532 -0.866045 0.023046 0.499435 0.000000
-0.006187 0.119657 0.003729 -0.387108 -0.017655 -0.921865 0.000000
-0.018015 0.011009 0.025466 -0.998172 0.008827 0.059790 0.000000
0.020000 -0.029804 0.028309 0.999678 0.000635 0.025369 0.000000
-0.017137 -0.102831 0.006961 -0.640750 -0.045118 -0.766423 0.000000
0.016659 0.038998 0.012481 0.738831 -0.016318 -0.673693 0.000000
0.005652 -0.117260 0.000983 0.213968 -0.026287 -0.976487 0.000000
0.006294 0.036694 0.005357 0.205528 -0.015586 -0.978527 0.000000
0.010076 0.160226 0.037093 0.478592 0.060054 0.875981 0.000000
-0.009418 0.129918 0.036926 -0.561988 0.017653 0.826957 0.000000
-0.026442 -0.128465 0.028108 -0.970426 -0.227453 -0.080859 0.000000
0.017548 0.006676 0.034096 0.884268 0.015037 0.466738 0.000000
0.009186 0.009434 0.041881 0.534651 0.022110 0.844784 0.000000
-0.017190 0.098312 0.016103 -0.903599 -0.012826 -0.428187 0.000000
0.013975 0.137554 0.006587 0.733983 -0.028450 -0.678572 0.000000
0.014051 -0.019626 0.039525 0.784471 0.012598 0.620037 0.000000
-0.006056 0.087005 0.004577 -0.415848 -0.016755 -0.909280 0.000000
-0.015360 0.150062 0.030138 -0.844364 0.004589 0.535750 0.000000
0.008799 0.027605 0.041402 0.340862 0.030338 0.939624 0.000000
0.005944 0.102772 0.040255 0.240248 0.027681 0.970317 0.000000
-0.009315 -0.110901 0.002383 -0.326528 -0.038030 -0.944422 0.000000
0.018538 -0.063040 0.018906 0.865251 -0.012452 -0.501183 0.000000
-0.009590 0.120698 0.005553 -0.561795 -0.024323 -0.826919 0.000000
0.028181 -0.101797 0.024354 0.997041 -0.009801 -0.076243 0.000000
0.018852 0.023078 0.017381 0.937646 0.002441 -0.347584 0.000000
0.005566 -0.101405 0.054765 0.166794 0.020849 0.985771 0.000000
-0.018030 -0.069013 0.028831 -0.988216 -0.010762 0.152686 0.000000
-0.013566 -0.049468 0.038595 -0.724401 0.029335 0.688755 0.000000
0.000417 0.126209 0.040215 -0.002490 0.017138 0.999850 0.000000
0.002071 -0.024699 0.044476 0.060022 0.035953 0.997549 0.000000
0.011940 0.173509 0.021684 0.003646 0.999864 -0.016100 0.000000
-0.017904 0.018731 0.021873 -0.997996 -0.000932 -0.063270 0.000000
-0.022776 -0.128162 0.023922 0.834185 -0.519695 0.184532 0.000000
-0.014885 -0.104777 0.050398 -0.629148 0.049490 0.775708 0.000000
0.005709 0.005597 0.006102 0.309259 -0.029493 -0.950520 0.000000
0.020047 0.061877 0.021369 0.998799 0.008398 -0.048278 0.000000
0.010975 0.063333 0.006647 0.514058 -0.015829 -0.857609 0.000000
0.010640 0.019545 0.007624 0.388239 -0.022745 -0.921278 0.000000
0.016903 -0.117643 0.005758 0.563891 -0.029941 -0.825306 0.000000
0.007059 0.100463 0.003716 0.391552 -0.023954 -0.919844 0.000000
-0.016570 0.095856 0.014868 -0.903599 -0.012826 -0.428187 0.000000
0.020655 -0.128725 0.044017 -0.454777 -0.820653 -0.345988 0.000000
0.005008 -0.124168 0.040088 0.001334 -0.999609 0.027915 0.000000
0.013186 -0.082671 0.005664 0.516298 0.311283 -0.797834 0.000000
-0.006095 0.021077 0.041827 -0.359495 0.026821 0.932761 0.000000
0.001322 -0.097167 0.055015 0.019809 0.055679 0.998252 0.000000
-0.000748 0.111452 0.040808 -0.251528 0.029884 0.967389 0.000000
0.019370 0.154564 0.014501 0.943020 -0.003573 -0.332717 0.000000
0.006401 0.129566 0.002663 0.260440 -0.020570 -0.965271 0.000000
-0.017655 -0.036398 0.021463 -0.961195 -0.033290 -0.273852 0.000000
0.006630 -0.002955 0.006564 0.215195 -0.026845 -0.976202 0.000000
-0.003683 0.173207 0.012913 0.018028 0.997673 -0.065751 0.000000
0.007252 -0.125394 0.001575 0.232687 -0.024344 -0.972247 0.000000
-0.016415 -0.061820 0.019981 -0.793088 0.286155 -0.537706 0.000000
0.020083 0.034531 0.022388 0.998909 0.010087 -0.045588 0.000000
0.016045 -0.098903 0.004651 0.509239 -0.004468 -0.860614 0.000000
-0.016345 0.166096 0.012572 -0.944260 0.058232 -0.324009 0.000000
0.009546 -0.079178 0.005226 0.320901 0.395416 -0.860621 0.000000
-0.000716 -0.123612 0.050556 0.081223 -0.374425 -0.923693 0.000000
-0.012627 0.102315 0.035064 -0.743848 0.023736 0.667927 0.000000
0.008227 -0.126838 0.051018 -0.288689 -0.554422 -0.780561 0.000000
0.012267 0.076111 0.007140 0.626983 -0.027706 -0.778540 0.000000
-0.015614 -0.084209 0.046766 -0.583190 0.293577 0.757431 0.000000
-0.011121 -0.124499 0.028807 0.000260 -0.999662 0.025995 0.000000
0.020116 0.121423 0.023373 0.990458 0.001288 0.137810 0.000000
-0.007996 0.067034 0.005956 -0.558740 -0.023750 -0.829003 0.000000
-0.017512 0.016079 0.029680 -0.905900 0.019834 0.423026 0.000000
0.000022 0.119173 0.040709 0.122975 0.026871 0.992046 0.000000
0.001111 -0.061125 0.007091 0.199445 -0.027338 -0.979528 0.000000
0.004479 -0.043065 0.044774 0.231483 0.034133 0.972240 0.000000
-0.022891 -0.128903 0.022285 0.652668 -0.736327 0.178459 0.000000
-0.006611 0.159874 0.002793 -0.433686 0.108627 -0.894492 0.000000
0.016291 0.007433 0.013098 0.752022 -0.021062 -0.658801 0.000000
-0.000037 0.008578 0.005492 -0.024648 -0.022806 -0.999436 0.000000
0.012562 -0.042509 0.041196 0.631837 0.023145 0.774755 0.000000
-0.002883 -0.032127 0.044484 -0.311484 0.022466 0.949986 0.000000
0.019881 0.046537 0.026357 0.991625 -0.000586 0.129150 0.000000
0.000281 -0.115654 0.055622 -0.033598 0.027371 0.999061 0.000000
0.013627 0.116047 0.007021 0.671306 -0.021768 -0.740861 0.000000
-0.005262 -0.016172 0.043351 -0.238336 0.017117 0.971032 0.000000
-0.017152 -0.004653 0.019060 -0.944703 -0.012981 -0.327671 0.000000
0.006882 -0.101030 0.000778 0.220300 -0.036680 -0.974742 0.000000
0.010590 0.033877 0.007298 0.529622 -0.033627 -0.847567 0.000000
0.025738 -0.129896 0.025281 -0.869439 -0.478591 0.122583 0.000000
0.007726 -0.084405 0.051915 0.251714 0.282512 0.925650 0.000000
0.012202 0.150026 0.036184 0.497115 0.016293 0.867532 0.000000
0.019206 0.045697 0.029429 0.970621 0.011952 0.240318 0.000000
0.018833 0.068501 0.015892 0.926972 -0.021505 -0.374514 0.000000
0.023997 -0.114159 0.042990 0.859776 0.004804 0.510649 0.000000
0.005854 0.142466 0.002100 0.312506 -0.008544 -0.949877 0.000000
0.012793 -0.012098 0.040118 0.622997 0.027057 0.781756 0.000000
0.015540 -0.118826 0.004869 0.563891 -0.029941 -0.825306 0.000000
0.017816 0.129133 0.011697 0.894652 -0.016528 -0.446458 0.000000
-0.006112 -0.058770 0.044205 -0.310173 0.034275 0.950062 0.000000
-0.005605 0.078392 0.040592 -0.482192 0.024190 0.875732 0.000000
-0.010610 0.145740 0.005484 -0.615733 -0.013396 -0.787841 0.000000
-0.017851 -0.010160 0.021893 -0.974795 -0.000047 -0.223102 0.000000
0.005153 -0.040789 0.007347 0.221100 -0.025234 -0.974925 0.000000
-0.008463 -0.127525 0.050781 0.305096 -0.540406 -0.784142 0.000000
0.009853 -0.042795 0.043097 0.326825 0.028521 0.944654 0.000000
0.019166 0.063417 0.028754 0.964234 -0.011668 0.264797 0.000000
-0.011508 0.067690 0.008479 -0.708432 -0.012910 -0.705661 0.000000
-0.002247 -0.061856 0.045785 0.052861 0.033352 0.998045 0.000000
0.015025 0.110661 0.034633 0.746640 0.008072 0.665180 0.000000
-0.015126 -0.109504 0.005453 -0.544495 -0.048968 -0.837333 0.000000
0.019742 0.143180 0.025054 0.975021 0.014230 0.221656 0.000000
-0.026370 -0.104037 0.031579 -0.992461 0.005824 0.122421 0.000000
0.003906 -0.047502 0.045066 0.231483 0.034133 0.972240 0.000000
0.005511 -0.082203 0.051714 0.225692 0.345899 0.910723 0.000000
-0.003401 0.025546 0.042572 -0.240713 0.032701 0.970045 0.000000
0.028107 -0.101777 0.023696 0.982965 0.002435 -0.183777 0.000000
0.024934 -0.108658 0.014683 0.877370 0.000833 -0.479813 0.000000
0.016188 0.111182 0.033267 0.787451 0.019304 0.616075 0.000000
0.000681 -0.091443 0.054495 0.046031 0.177999 0.982954 0.000000
-0.014123 -0.034181 0.037380 -0.795101 0.028254 0.605819 0.000000
-0.014028 -0.054907 0.038288 -0.728063 0.015613 0.685333 0.000000
0.001026 0.173697 0.026773 0.001002 0.999925 -0.012226 0.000000
0.027941 -0.117398 0.033027 0.982695 -0.033465 0.182181 0.000000
-0.007380 0.105908 0.004620 -0.381405 -0.025705 -0.924051 0.000000
0.008251 0.031929 0.006228 0.388514 -0.046218 -0.920283 0.000000
0.010249 -0.041851 0.009326 0.516129 -0.018265 -0.856316 0.000000
0.011909 -0.115035 0.002857 0.457102 -0.009930 -0.889359 0.000000
-0.000249 0.116183 0.002450 -0.071063 -0.029676 -0.997030 0.000000
0.008007 0.069403 0.005066 0.408548 -0.048902 -0.911426 0.000000
0.006269 0.006006 0.006231 0.208038 -0.028132 -0.977716 0.000000
-0.014183 -0.120388 0.051233 -0.572714 0.037011 0.818919 0.000000
0.014482 0.093182 0.008514 0.729919 -0.015675 -0.683354 0.000000
-0.026310 -0.108270 0.023624 -0.981129 -0.005278 -0.193282 0.000000
-0.018308 -0.070959 0.026621 -0.972954 0.230721 -0.011322 0.000000
-0.026309 -0.093137 0.028527 -0.990783 0.109160 0.080210 0.000000
0.018092 0.110000 0.030456 0.840397 0.012796 0.541821 0.000000
-0.000301 -0.029057 0.044668 0.020326 0.018209 0.999628 0.000000
-0.007517 0.005582 0.041649 -0.492100 0.036997 0.869752 0.000000
0.005579 0.164890 0.038774 0.214607 0.034700 0.976084 0.000000
0.015042 0.141614 0.007585 0.732278 -0.026351 -0.680496 0.000000
0.010413 -0.009783 0.008462 0.524446 -0.023824 -0.851110 0.000000
-0.021189 -0.125500 0.034029 0.942844 -0.230714 -0.240451 0.000000
-0.009208 -0.035537 0.009584 -0.448147 -0.018730 -0.893763 0.000000
0.017455 0.054409 0.032985 0.804384 0.007825 0.594058 0.000000
0.022559 -0.123694 0.045252 0.812203 0.020745 0.583006 0.000000
-0.013063 -0.009936 0.012158 -0.717328 -0.028175 -0.696165 0.000000
0.000437 0.173759 0.030741 -0.003547 0.999925 -0.011697 0.000000
0.017100 0.127786 0.031587 0.828990 0.011897 0.559137 0.000000
0.027680 -0.123054 0.022371 0.969283 -0.001854 -0.245941 0.000000
0.016566 0.032173 0.035030 0.850302 0.019609 0.525929 0.000000
-0.009625 0.049492 0.039136 -0.563495 0.024604 0.825753 0.000000
0.003727 -0.001195 0.005696 -0.020013 -0.029116 -0.999376 0.000000
0.007467 0.111005 0.039803 0.490200 0.012034 0.871527 0.000000
-0.007371 -0.124016 0.044710 -0.000719 -0.999498 0.031661 0.000000
0.009440 0.141597 0.037936 0.449384 0.016782 0.893181 0.000000
-0.012728 0.133098 0.034178 -0.778982 0.024000 0.626587 0.000000
-0.010509 0.095661 0.037174 -0.578250 0.030578 0.815286 0.000000
-0.024166 -0.121530 0.016829 -0.934917 0.006892 -0.354800 0.000000
0.017090 0.007548 0.034873 0.814318 0.015035 0.580225 0.000000
0.022790 -0.117185 0.011462 0.773422 0.006203 -0.633862 0.000000
-0.000599 -0.038151 0.044906 -0.046314 0.022651 0.998670 0.000000
0.017979 -0.061711 0.017918 0.852893 -0.029419 -0.521256 0.000000
0.026992 -0.120254 0.019629 0.943720 0.007795 -0.330653 0.000000
-0.018940 -0.127972 0.015233 0.702815 -0.561524 0.436739 0.000000
-0.016029 -0.111844 0.006296 -0.635857 -0.021956 -0.771495 0.000000
0.008646 0.086163 0.039743 0.416858 0.031657 0.908420 0.000000
-0.016634 -0.043011 0.033334 -0.937864 0.010421 0.346847 0.000000
0.027559 -0.089897 0.027729 0.976635 0.212961 -0.028841 0.000000
0.003389 -0.002900 0.005752 -0.020013 -0.029116 -0.999376 0.000000
-0.016750 0.040561 0.030365 -0.944815 0.017701 0.327124 0.000000
-0.021050 -0.117802 0.044907 -0.766285 0.026914 0.641937 0.000000
-0.016218 -0.057190 0.021073 -0.888817 -0.077553 -0.451652 0.000000
0.005189 -0.007960 0.006396 0.204691 -0.030255 -0.978359 0.000000
-0.018901 -0.072635 0.021289 -0.830512 0.472523 -0.294909 0.000000
0.015858 0.171181 0.009095 0.805736 0.250056 -0.536900 0.000000
0.002906 -0.129895 0.003723 -0.027301 -0.529209 0.848052 0.000000
0.016849 0.105343 0.010784 0.748069 -0.017653 -0.663387 0.000000
0.011616 -0.099309 0.052959 0.394744 0.024729 0.918458 0.000000
-0.020769 -0.076442 0.033594 -0.887514 0.411612 0.207110 0.000000
0.008629 0.145745 0.002919 0.291529 -0.027355 -0.956171 0.000000
0.011403 -0.124448 0.048468 -0.417813 -0.270906 -0.867204 0.000000
-0.015955 -0.072444 0.015315 -0.600920 0.623328 -0.500357 0.000000
-0.023461 -0.081610 0.023644 -0.936508 0.319116 -0.145316 0.000000
0.000931 0.104968 0.040936 -0.115459 0.026978 0.992946 0.000000
0.014951 -0.041561 0.013006 0.722977 -0.020501 -0.690568 0.000000
0.012668 0.125901 0.036387 0.663826 -0.005151 0.747869 0.000000
0.025107 -0.081720 0.031627 0.918939 0.338228 0.202863 0.000000
-0.012890 -0.006780 0.037985 -0.723356 0.014670 0.690320 0.000000
-0.016495 -0.082130 0.009748 -0.672781 0.318093 -0.667970 0.000000
-0.012796 -0.016561 0.011994 -0.756656 -0.016171 -0.653613 0.000000
-0.007274 0.078885 0.039909 -0.285978 0.027137 0.957852 0.000000
-0.011285 -0.103511 0.052456 -0.412739 0.019354 0.910644 0.000000
0.020090 -0.018229 0.025923 0.999295 -0.008199 -0.036640 0.000000
0.011194 0.047813 0.007069 0.406841 -0.028553 -0.913052 0.000000
-0.004418 0.077679 0.040776 -0.259284 0.034428 0.965187 0.000000
-0.014926 -0.054631 0.037150 -0.752722 0.016712 0.658127 0.000000
0.016389 0.128986 0.032575 0.783744 0.009044 0.621019 0.000000
0.005645 0.062102 0.004457 0.287278 -0.015450 -0.957722 0.000000
-0.021394 -0.112913 0.044107 -0.800020 0.200761 0.565387 0.000000
0.012178 0.159465 0.004590 0.582653 -0.024935 -0.812338 0.000000
0.019653 0.142977 0.015713 0.945217 -0.004749 -0.326408 0.000000
0.005892 -0.020143 0.006919 0.317715 -0.021594 -0.947940 0.000000
0.020078 0.146842 0.023287 0.975594 0.017013 0.218922 0.000000
0.018926 0.102231 0.028628 0.941624 0.007527 0.336582 0.000000
0.015919 0.034222 0.035689 0.797282 0.011179 0.603503 0.000000
0.009910 0.152043 0.037432 0.485460 0.026425 0.873859 0.000000
0.015888 -0.090681 0.005265 0.537341 0.157371 -0.828553 0.000000
-0.017202 0.003232 0.030253 -0.948584 0.010105 0.316364 0.000000
-0.015989 -0.037643 0.034696 -0.915064 0.022774 0.402664 0.000000
0.017896 -0.035619 0.034722 0.851859 0.016355 0.523516 0.000000
-0.006227 0.038125 0.005914 -0.483878 -0.026565 -0.874732 0.000000
0.007088 0.173286 0.011130 -0.003068 0.999816 -0.018919 0.000000
-0.019191 -0.127286 0.047189 -0.662196 -0.204589 0.720861 0.000000
-0.015601 0.139462 0.011386 -0.814557 -0.013922 -0.579916 0.000000
-0.013563 0.020057 0.011917 -0.754273 -0.017007 -0.656340 0.000000
0.005052 0.125855 0.002597 0.166130 -0.066473 -0.983861 0.000000
0.015066 -0.064200 0.013655 0.677083 -0.015827 -0.735736 0.000000
0.005128 0.109970 0.040268 0.234183 0.024956 0.971872 0.000000
-0.019923 -0.074291 0.021496 -0.874556 0.458791 -0.157042 0.000000
0.017870 0.057204 0.032386 0.804384 0.007825 0.594058 0.000000
-0.001939 -0.094230 0.000395 -0.100949 0.043021 -0.993961 0.000000
0.013233 0.022170 0.009485 0.651315 -0.035029 -0.757999 0.000000
0.016557 0.012636 0.035441 0.827225 0.030668 0.561033 0.000000
-0.017982 0.063066 0.024502 -0.989947 0.008399 0.141185 0.000000
-0.006564 -0.124139 0.041177 0.003808 -0.999538 0.030168 0.000000
-0.011967 0.016478 0.038235 -0.714049 0.034580 0.699241 0.000000
0.021955 -0.093453 0.010281 0.746797 0.056503 -0.662647 0.000000
-0.011501 -0.061680 0.012030 -0.668655 -0.016575 -0.743388 0.000000
-0.011755 0.083661 0.008137 -0.740961 -0.015426 -0.671371 0.000000
0.026140 -0.093372 0.037496 0.924590 0.123393 0.360427 0.000000
0.015442 -0.111133 0.004474 0.511467 -0.201818 -0.835267 0.000000
0.008448 0.173794 0.031976 0.210748 0.949412 0.232813 0.000000
0.018668 -0.072570 0.016896 0.735040 0.494461 -0.463923 0.000000
-0.016237 0.008398 0.033110 -0.951188 0.003476 0.308593 0.000000
-0.002029 0.140664 0.001886 -0.176483 -0.030868 -0.983819 0.000000
0.019606 0.055738 0.018702 0.966377 -0.005865 -0.257061 0.000000
0.016154 -0.022190 0.013829 0.747326 -0.016011 -0.664265 0.000000
-0.012106 -0.124207 0.004130 -0.484156 -0.024727 -0.874632 0.000000
-0.013285 -0.031466 0.038318 -0.711132 0.022399 0.702701 0.000000
0.006658 0.054497 0.005000 0.312283 -0.034428 -0.949365 0.000000
0.020111 0.029967 0.023424 0.999923 0.009311 0.008138 0.000000
0.016632 -0.047586 0.037098 0.789609 0.017577 0.613359 0.000000
0.009551 -0.079496 0.049503 0.349507 0.356417 0.866494 0.000000
-0.008687 -0.056898 0.009861 -0.546789 -0.016230 -0.837113 0.000000
0.001922 0.173595 0.010026 0.016350 0.989272 -0.145166 0.000000
0.024592 -0.083485 0.018870 0.879429 0.294582 -0.373933 0.000000
-0.001303 0.112151 0.002567 -0.208428 -0.026100 -0.977689 0.000000
0.023522 -0.124493 0.026592 -0.986440 -0.157496 0.046167 0.000000
-0.016379 -0.033035 0.033436 -0.931071 -0.004500 0.364810 0.000000
-0.015294 0.009123 0.014374 -0.910433 0.000342 -0.413656 0.000000
0.004682 0.017192 0.043222 0.339476 0.029340 0.940157 0.000000
-0.013292 -0.004148 0.037499 -0.736290 0.019432 0.676387 0.000000
-0.016444 0.114975 0.014090 -0.903065 -0.016544 -0.429184 0.000000
0.025538 -0.115391 0.015915 0.908265 -0.003715 -0.418379 0.000000
0.001000 0.117402 0.040475 -0.005639 0.031481 0.999488 0.000000
-0.011585 -0.013280 0.039467 -0.689562 0.016310 0.724043 0.000000
-0.005885 -0.050164 0.043985 -0.345848 0.033829 0.937680 0.000000
0.020015 0.091533 0.024552 0.994347 -0.003807 0.106116 0.000000
0.017714 0.171516 0.013825 0.581920 0.759556 -0.290592 0.000000
-0.015896 0.080412 0.031195 -0.866173 0.008739 0.499667 0.000000
0.005634 0.038172 0.042170 0.241069 0.027512 0.970118 0.000000
-0.015700 0.116108 0.012271 -0.827909 -0.006464 -0.560825 0.000000
0.020107 0.121697 0.024966 0.936134 -0.000375 0.351644 0.000000
0.014150 0.117571 0.035393 0.613812 0.015193 0.789306 0.000000
-0.020116 -0.089256 0.011151 -0.776952 0.146097 -0.612374 0.000000
0.020203 0.134213 0.021648 0.999659 -0.007359 0.025068 0.000000
-0.006456 -0.083561 0.003275 -0.252703 0.306290 -0.917784 0.000000
0.019722 0.164268 0.016173 0.980436 -0.054371 -0.189179 0.000000
0.014644 0.119514 0.007797 0.752194 -0.018767 -0.658674 0.000000
-0.005464 0.027267 0.041895 -0.362974 0.023764 0.931496 0.000000
-0.003244 0.164685 0.001504 -0.148178 -0.026578 -0.988604 0.000000
0.009306 0.092945 0.039305 0.464201 0.029220 0.885248 0.000000
-0.018087 -0.010464 0.026453 -0.987111 0.006770 0.159896 0.000000
0.005757 0.088077 0.003638 0.151868 -0.044608 -0.987394 0.000000
0.010204 0.136542 0.037615 0.475330 0.039215 0.878933 0.000000
-0.002022 0.158973 0.001331 -0.127814 -0.046573 -0.990704 0.000000
-0.017796 0.134669 0.024574 -0.999116 0.003324 0.041911 0.000000
0.020026 -0.055514 0.025292 0.999959 0.008588 -0.002774 0.000000
0.006105 0.154622 0.001857 0.239189 -0.034882 -0.970346 0.000000
0.001753 -0.124477 0.028681 0.000490 -0.999636 0.026993 0.000000
0.006393 -0.079809 0.004015 0.175677 0.339140 -0.924187 0.000000
-0.015626 0.155765 0.011227 -0.906233 -0.021532 -0.422230 0.000000
-0.017060 0.032250 0.017436 -0.979489 -0.008915 -0.201301 0.000000
0.007339 -0.009534 0.043029 0.348467 0.030066 0.936839 0.000000
0.013680 0.045795 0.037727 0.649526 0.022788 0.759998 0.000000
-0.017773 0.105470 0.018938 -0.981313 0.000068 -0.192418 0.000000
0.008303 -0.045026 0.008475 0.425257 -0.026443 -0.904686 0.000000
0.012799 0.058805 0.008117 0.644982 -0.032181 -0.763520 0.000000
-0.014302 -0.074016 0.042248 -0.586610 0.497141 0.639327 0.000000
0.009700 -0.124279 0.035888 -0.000189 -0.999596 0.028409 0.000000
0.019110 0.108808 0.028072 0.918075 0.034498 0.394903 0.000000
-0.017943 0.152077 0.019128 -0.998377 -0.046599 -0.032746 0.000000
0.018172 0.061643 0.031439 0.879648 0.020995 0.475161 0.000000
0.010604 0.173780 0.032144 0.002206 0.999872 -0.015865 0.000000
0.016436 0.173059 0.019080 0.197397 0.978226 -0.064101 0.000000
0.011342 0.152619 0.004312 0.534156 -0.047783 -0.844034 0.000000
-0.002077 0.125372 0.002277 -0.065430 -0.035607 -0.997222 0.000000
0.018347 0.023887 0.032076 0.895515 0.019762 0.444592 0.000000
0.020111 0.074721 0.021622 0.998192 -0.005148 -0.059888 0.000000
0.017527 0.110185 0.031587 0.787451 0.019304 0.616075 0.000000
-0.013264 0.119693 0.008799 -0.694557 -0.036078 -0.718532 0.000000
-0.012034 -0.107608 0.003527 -0.472095 -0.020831 -0.881301 0.000000
0.008840 0.001270 0.007381 0.416259 -0.024670 -0.908911 0.000000
-0.006966 -0.009467 0.042312 -0.406520 0.038578 0.912827 0.000000
-0.006112 0.033362 0.006152 -0.386696 -0.024765 -0.921875 0.000000
0.017361 -0.046838 0.016388 0.872412 -0.014408 -0.488558 0.000000
-0.009232 -0.094969 0.053001 -0.323309 0.045016 0.945222 0.000000
-0.000334 0.068853 0.003803 -0.044503 -0.032787 -0.998471 0.000000
0.016181 0.173130 0.023705 0.159235 0.986851 0.027733 0.000000
0.024220 -0.084241 0.017398 0.879429 0.294582 -0.373933 0.000000
0.013732 0.111741 0.036518 0.448745 0.040821 0.892727 0.000000
-0.001532 -0.049202 0.045217 -0.019907 0.031944 0.999291 0.000000
-0.011683 0.015792 0.038540 -0.625262 0.010448 0.780345 0.000000
-0.009939 0.137275 0.005268 -0.579975 -0.033871 -0.813930 0.000000
0.006956 0.131357 0.039164 0.254450 -0.000076 0.967086 0.000000
-0.014822 -0.046871 0.036894 -0.785582 0.020152 0.618429 0.000000
0.003728 0.054004 0.004282 0.072734 0.001533 -0.997350 0.000000
-0.011381 0.153756 0.005877 -0.615451 -0.026991 -0.787713 0.000000
0.008592 -0.081634 0.050896 0.171904 0.349168 0.921157 0.000000
0.020193 0.057436 0.024361 0.999316 -0.001536 -0.036947 0.000000
-0.012049 0.013614 0.038276 -0.625262 0.010448 0.780345 0.000000
0.028443 -0.108090 0.028508 0.998302 -0.001069 -0.058238 0.000000
0.005919 0.032120 0.042304 0.299060 0.041932 0.953313 0.000000
0.009040 -0.027754 0.042880 0.466264 0.036289 0.883901 0.000000
-0.015205 0.147725 0.030357 -0.850705 0.020053 0.525261 0.000000
-0.008667 -0.111671 0.002190 -0.326528 -0.038030 -0.944422 0.000000
0.016885 0.043445 0.034193 0.785501 0.015814 0.618658 0.000000
0.010708 -0.075973 0.047242 0.400100 0.425380 0.811771 0.000000
0.019648 0.033805 0.028301 0.988522 0.003816 0.151029 0.000000
-0.011619 0.056330 0.037365 -0.641787 0.018424 0.766662 0.000000
-0.015776 -0.124524 0.027640 0.002651 -0.999744 0.022452 0.000000
-0.016149 -0.121955 0.049893 -0.642102 0.020450 0.766346 0.000000
0.020225 -0.072093 0.020941 0.817743 0.469056 -0.333591 0.000000
-0.013603 -0.055843 0.014562 -0.681522 -0.352182 -0.641480 0.000000
-0.017237 0.163299 0.025252 -0.956289 -0.012569 0.292154 0.000000
-0.006082 -0.053791 0.008485 -0.415603 -0.016914 -0.909389 0.000000
0.020316 0.167412 0.019898 0.993868 0.059081 -0.093464 0.000000
0.016084 0.173151 0.022163 0.196036 0.980594 0.002301 0.000000
0.012201 0.125246 0.036962 0.423253 0.041143 0.905077 0.000000
0.020185 0.128712 0.022847 0.992200 -0.003913 0.124592 0.000000
-0.012196 0.156723 0.006621 -0.658459 0.006656 -0.752587 0.000000
-0.012334 0.077051 0.036232 -0.624930 0.024614 0.780293 0.000000
-0.015486 0.075187 0.013077 -0.825123 -0.026695 -0.564322 0.000000
0.003453 -0.124641 0.022628 0.000609 -0.999624 0.027420 0.000000
-0.017478 0.044881 0.018801 -0.979298 -0.012977 -0.202008 0.000000
0.015349 0.024405 0.036757 0.801620 0.022724 0.597402 0.000000
0.019623 -0.009026 0.029226 0.979376 -0.003933 0.202007 0.000000
0.012619 0.138708 0.005420 0.681258 -0.034496 -0.731230 0.000000
0.011619 -0.128374 0.052956 0.254768 -0.887276 0.384494 0.000000
-0.019165 -0.078585 0.015081 -0.802480 0.351712 -0.482001 0.000000
-0.011993 -0.105046 0.052130 -0.468795 0.020572 0.883067 0.000000
0.017789 -0.059375 0.017507 0.870718 -0.010777 -0.491665 0.000000
0.013586 0.109677 0.036049 0.638970 0.017097 0.769042 0.000000
0.018670 0.035338 0.015496 0.799938 -0.016296 -0.599861 0.000000
-0.008329 0.145031 0.004061 -0.511607 -0.010564 -0.859154 0.000000
0.012496 -0.052381 0.041686 0.470329 0.026612 0.882089 0.000000
-0.014396 -0.033952 0.037010 -0.795101 0.028254 0.605819 0.000000
0.002544 0.173455 0.018682 0.018792 0.998145 -0.057910 0.000000
-0.003028 0.011114 0.005800 -0.151934 -0.022466 -0.988135 0.000000
0.004799 -0.112414 0.000812 0.210692 -0.186744 -0.959550 0.000000
-0.006788 -0.070904 0.009312 -0.400368 -0.016431 -0.916207 0.000000
-0.011143 -0.024682 0.040306 -0.553360 0.023016 0.832624 0.000000
-0.015613 0.142386 0.029916 -0.907237 0.009941 0.420503 0.000000
0.003095 -0.041151 0.007007 0.065825 -0.022331 -0.997581 0.000000
-0.000053 0.017665 0.043287 0.045896 0.043297 0.998008 0.000000
-0.011661 0.149077 0.035873 -0.379251 0.028294 0.924861 0.000000
-0.025842 -0.119847 0.021738 -0.978088 -0.001928 -0.208182 0.000000
0.019434 -0.069829 0.031695 0.951608 -0.007952 0.307212 0.000000
-0.004814 0.159851 0.038350 -0.367383 0.034350 0.929435 0.000000
0.015713 -0.019050 0.037411 0.784471 0.012598 0.620037 0.000000
-0.025762 -0.120894 0.035168 -0.977583 -0.003687 0.210518 0.000000
-0.006156 -0.127717 0.051772 0.196290 -0.547773 -0.813274 0.000000
-0.004243 0.018999 0.042552 -0.255386 0.023746 0.966547 0.000000
0.003051 0.143065 0.001624 0.128372 -0.030686 -0.991251 0.000000
0.019373 0.147507 0.026446 0.926636 0.000370 0.375961 0.000000
0.026388 -0.101857 0.038038 0.921139 0.021974 0.388614 0.000000
-0.005543 0.151068 0.002326 -0.474487 -0.035261 -0.879556 0.000000
-0.002522 -0.079895 0.051029 -0.131578 0.353436 0.926159 0.000000
0.017168 -0.077433 0.043543 0.631879 0.444173 0.635168 0.000000
0.018502 -0.028675 0.033184 0.924390 0.008929 0.381344 0.000000
-0.006688 -0.066333 0.044152 -0.355796 0.025761 0.934209 0.000000
0.001820 0.127535 0.040209 0.110994 0.036881 0.993136 0.000000
-0.011630 0.014048 0.009893 -0.746422 -0.019687 -0.665181 0.000000
-0.016699 0.021282 0.017109 -0.904267 -0.010034 -0.426850 0.000000
-0.009175 0.113593 0.037582 -0.568083 0.016544 0.822805 0.000000
-0.015429 -0.022163 0.035089 -0.867257 0.022984 0.497331 0.000000
0.016640 0.131536 0.032220 0.783744 0.009044 0.621019 0.000000
-0.003791 -0.060391 0.045003 -0.217898 0.023649 0.975685 0.000000
0.012694 0.147055 0.005270 0.541030 -0.029428 -0.840488 0.000000
-0.021344 -0.101671 0.044251 -0.726617 0.026000 0.686551 0.000000
-0.002094 -0.123966 0.046923 -0.005568 -0.999520 0.030472 0.000000
0.012009 0.130971 0.036777 0.498656 0.030438 0.866265 0.000000
-0.017177 0.124463 0.015957 -0.967693 0.020085 -0.251331 0.000000
-0.010908 -0.017217 0.010143 -0.724497 0.000021 -0.689278 0.000000
-0.016270 0.081541 0.030537 -0.945869 -0.000926 0.324546 0.000000
-0.016734 0.069631 0.029599 -0.934581 0.018313 0.355279 0.000000
0.018315 -0.054253 0.018284 0.871500 -0.022376 -0.489885 0.000000
-0.001397 0.091321 0.003257 -0.142254 -0.030552 -0.989358 0.000000
-0.026565 -0.103067 0.030378 -0.998972 -0.006950 0.044787 0.000000
0.015482 -0.024008 0.037895 0.790887 0.017122 0.611723 0.000000
0.009416 0.157403 0.002996 0.451616 -0.023441 -0.891904 0.000000
-0.003954 -0.124722 0.019988 0.001834 -0.999600 0.028208 0.000000
0.001925 0.097135 0.002919 -0.013401 -0.034872 -0.999302 0.000000
0.027345 -0.108102 0.020319 0.947597 -0.012175 -0.319235 0.000000
-0.017718 -0.016009 0.028903 -0.986268 0.006427 0.165027 0.000000
-0.020981 -0.106905 0.044575 -0.793661 0.011713 0.608248 0.000000
-0.015922 -0.025466 0.016652 -0.901119 -0.005267 -0.433541 0.000000
-0.022473 -0.129371 0.020127 0.259419 -0.963215 0.070131 0.000000
0.018400 0.075970 0.030655 0.863926 0.023488 0.503070 0.000000
0.019054 -0.044197 0.019981 0.932309 -0.007655 -0.361581 0.000000
0.019889 -0.031858 0.028462 0.989352 0.010818 0.145139 0.000000
0.020223 -0.068218 0.025811 0.981121 0.000024 -0.193392 0.000000
0.013618 -0.019326 0.011041 0.675426 -0.016524 -0.737243 0.000000
-0.025920 -0.090739 0.029740 -0.975236 0.149258 0.163210 0.000000
-0.017565 0.161943 0.023534 -0.950642 -0.193520 0.242550 0.000000
-0.001615 0.108604 0.002742 -0.064613 -0.027535 -0.997530 0.000000
0.022624 -0.078213 0.018920 0.862514 0.403745 -0.305057 0.000000
0.015075 0.037155 0.010799 0.733445 -0.019303 -0.679475 0.000000
0.019979 0.116421 0.025363 0.939853 0.011336 0.341392 0.000000
0.021265 -0.073881 0.033198 0.841110 0.456308 0.290374 0.000000
-0.005973 -0.109679 0.054561 -0.254553 0.044471 0.966036 0.000000
0.012205 -0.020796 0.009856 0.486757 -0.017962 -0.873353 0.000000
-0.012159 0.015824 0.010547 -0.679961 -0.021145 -0.732943 0.000000
-0.011844 0.023445 0.038127 -0.709962 0.013709 0.704107 0.000000
0.014339 0.158163 0.034155 0.741367 0.034955 0.670189 0.000000
-0.004622 -0.069311 0.045021 -0.355796 0.025761 0.934209 0.000000
-0.009359 0.070295 0.039032 -0.386646 0.025945 0.921863 0.000000
0.023375 -0.128619 0.043151 0.742744 -0.518240 0.423979 0.000000
0.013489 -0.006106 0.039407 0.678245 0.019583 0.734575 0.000000
0.019574 -0.061560 0.022519 0.979764 -0.005525 -0.200082 0.000000
-0.014263 0.027039 0.012595 -0.831415 -0.005492 -0.555625 0.000000
0.008454 -0.071667 0.045727 0.306787 0.493465 0.813864 0.000000
0.003321 0.093549 0.041007 0.070308 0.033155 0.996974 0.000000
-0.000554 -0.029366 0.044611 -0.108578 0.034568 0.993487 0.000000
0.018582 -0.007635 0.017618 0.935229 -0.005751 -0.353997 0.000000
-0.017556 0.081766 0.027604 -0.996469 0.020082 0.081528 0.000000
0.017607 0.047102 0.013748 0.809000 -0.019339 -0.587490 0.000000
0.019219 0.093763 0.028425 0.976362 -0.000971 0.216139 0.000000
0.027611 -0.111769 0.031056 0.915425 0.401898 0.021796 0.000000
-0.017856 0.049672 0.021075 -0.998363 0.012232 -0.055874 0.000000
-0.017267 -0.069948 0.020763 -0.965579 -0.009638 -0.259930 0.000000
-0.002285 -0.125035 0.007551 -0.005035 -0.999754 0.021616 0.000000
-0.017212 -0.048990 0.018349 -0.904809 0.154011 -0.396990 0.000000
0.002094 -0.106585 0.000356 0.028177 -0.016187 -0.999472 0.000000
0.019571 0.053961 0.018718 0.979182 -0.002660 -0.202968 0.000000
0.015843 -0.015581 0.037179 0.788177 0.017106 0.615211 0.000000
0.001848 0.117475 0.040482 -0.008128 0.029176 0.999541 0.000000
0.000795 -0.106715 0.000321 0.028177 -0.016187 -0.999472 0.000000
-0.005555 0.172659 0.006029 -0.165098 0.946233 -0.278182 0.000000
0.001898 0.035820 0.004706 0.059537 -0.019722 -0.998031 0.000000
0.006883 0.002691 0.006573 0.308609 -0.028939 -0.950749 0.000000
-0.014147 0.080269 0.033892 -0.810232 0.015099 0.585915 0.000000
-0.023213 -0.103536 0.041106 -0.867084 0.020265 0.497750 0.000000
0.014243 0.062207 0.036864 0.754632 0.029056 0.655505 0.000000
-0.017447 0.135666 0.025674 -0.932546 0.008419 0.360953 0.000000
-0.020439 -0.074918 0.022415 -0.872851 0.465784 -0.145522 0.000000
-0.011094 0.116426 0.006719 -0.583672 -0.025164 -0.811600 0.000000
0.005400 -0.124721 0.055452 0.122010 0.021962 0.992286 0.000000
-0.017160 -0.067051 0.032674 -0.938871 0.021201 0.343617 0.000000
-0.003855 0.103392 0.003378 -0.273232 -0.024191 -0.961644 0.000000
0.018906 0.108579 0.028488 0.935634 0.007610 0.352889 0.000000
-0.016175 0.090430 0.014172 -0.905517 -0.008908 -0.424217 0.000000
-0.022140 -0.088701 0.014297 -0.845721 0.156254 -0.510236 0.000000
0.020148 -0.016880 0.027201 0.999295 -0.008199 -0.036640 0.000000
-0.017095 -0.055675 0.020501 -0.931076 -0.277359 -0.237001 0.000000
-0.015830 0.070513 0.013699 -0.824648 -0.002404 -0.565641 0.000000
0.024114 -0.085320 0.016299 0.879429 0.294582 -0.373933 0.000000
-0.017908 0.120061 0.023020 -0.988143 0.002756 0.153515 0.000000
-0.009182 -0.128098 0.050813 0.276054 -0.833487 -0.478638 0.000000
0.022828 -0.124611 0.033623 -0.364987 -0.928226 -0.071983 0.000000
0.022601 -0.074813 0.025853 0.902488 0.419569 -0.097346 0.000000
0.019853 -0.119830 0.048161 0.721431 0.014424 0.692336 0.000000
-0.005862 0.173666 0.024427 -0.006048 0.999697 -0.023877 0.000000
0.020211 0.133419 0.018803 0.999968 0.007474 0.002713 0.000000
-0.011169 0.074921 0.007965 -0.677511 -0.014112 -0.735377 0.000000
0.019724 0.145606 0.016084 0.981555 -0.003376 -0.191152 0.000000
-0.014814 0.089877 0.032710 -0.810906 0.021391 0.584786 0.000000
0.010271 -0.125900 0.002475 0.347759 -0.035946 -0.936895 0.000000
-0.004150 -0.063244 0.044992 -0.217898 0.023649 0.975685 0.000000
-0.003470 -0.124498 0.028557 0.002877 -0.999606 0.027931 0.000000
0.022883 -0.075296 0.027295 0.885522 0.462780 0.041052 0.000000
0.023233 -0.101877 0.043944 0.867032 0.003401 0.498240 0.000000
0.018171 0.117966 0.012818 0.885528 -0.015004 -0.464344 0.000000
0.005371 -0.043317 0.044571 0.231483 0.034133 0.972240 0.000000
0.028345 -0.107988 0.027521 0.999905 -0.013087 -0.004203 0.000000
-0.003183 -0.123940 0.047585 -0.001640 -0.999307 0.037195 0.000000
-0.010780 0.003681 0.009660 -0.579230 -0.023914 -0.814813 0.000000
0.017372 0.095022 0.011998 0.805989 -0.017980 -0.591657 0.000000
-0.013182 -0.127911 0.048002 0.356843 -0.826098 -0.436148 0.000000
0.008094 0.059828 0.040842 0.452285 0.021053 0.891625 0.000000
0.016581 0.124385 0.009483 0.890768 -0.020854 -0.453979 0.000000
0.019055 -0.113464 0.007593 0.644818 0.204309 -0.736524 0.000000
0.026818 -0.117441 0.019198 0.943736 0.008020 -0.330601 0.000000
-0.017475 -0.085871 0.045644 -0.671871 0.240110 0.700668 0.000000
0.016507 -0.029610 0.036878 0.857483 0.008284 0.514446 0.000000
-0.017975 0.034287 0.024932 -0.999970 0.007751 -0.000553 0.000000
0.018619 0.164247 0.027872 0.908242 0.019499 0.417990 0.000000
-0.011180 -0.080473 0.048319 -0.473948 0.322310 0.819444 0.000000
-0.006373 0.090161 0.039700 -0.388078 0.022291 0.921357 0.000000
-0.011181 0.157659 0.034855 -0.605461 0.042286 0.794751 0.000000
0.017953 0.133619 0.011843 0.903291 -0.018344 -0.428637 0.000000
-0.000350 -0.062632 0.045710 0.052861 0.033352 0.998045 0.000000
0.008057 0.063047 0.005223 0.398030 -0.086856 -0.913251 0.000000
-0.017587 -0.114398 0.048708 -0.671224 0.176631 0.719903 0.000000
-0.012008 -0.019694 0.011368 -0.683461 -0.023638 -0.729604 0.000000
-0.022326 -0.118036 0.013369 -0.855305 -0.015196 -0.517902 0.000000
0.018466 0.111797 0.029834 0.840397 0.012796 0.541821 0.000000
0.005402 0.034416 0.005205 0.205528 -0.015586 -0.978527 0.000000
-0.003174 0.103522 0.002986 -0.367065 -0.031402 -0.929665 0.000000
-0.005523 0.032269 0.041726 -0.381489 0.033504 0.923766 0.000000
-0.013142 -0.011534 0.012017 -0.817612 -0.016189 -0.575542 0.000000
0.013499 0.159471 0.005470 0.715013 -0.025848 -0.698633 0.000000
0.019928 0.086504 0.025529 0.995128 0.006075 0.098408 0.000000
-0.009966 -0.124981 0.010948 0.002624 -0.999665 0.025757 0.000000
0.019980 -0.067155 0.028522 0.997624 0.004497 0.068741 0.000000
0.019214 0.049414 0.017181 0.975575 -0.015871 -0.219095 0.000000
-0.020318 -0.109702 0.010390 -0.765565 0.001757 -0.643356 0.000000
-0.014318 0.069366 0.011530 -0.817923 -0.011330 -0.575216 0.000000
0.018045 0.138435 0.029797 0.915988 0.012856 0.400999 0.000000
-0.025159 -0.101529 0.018157 -0.974837 -0.004071 -0.222880 0.000000
0.024938 -0.115958 0.041440 0.869044 0.016781 0.494450 0.000000
0.019300 0.135423 0.026825 0.955035 0.004471 0.296459 0.000000
0.015332 0.061749 0.035752 0.803639 0.010715 0.595021 0.000000
0.019855 0.111181 0.025514 0.993632 0.006172 0.112506 0.000000
-0.002099 0.092276 0.003329 -0.142254 -0.030552 -0.989358 0.000000
-0.018711 -0.109918 0.008562 -0.729202 -0.025169 -0.683835 0.000000
0.022396 -0.129145 0.016127 -0.550525 -0.792793 0.261536 0.000000
0.005885 -0.124343 0.033645 -0.000667 -0.999690 0.024888 0.000000
0.019550 -0.035888 0.021531 0.975661 -0.010105 -0.219050 0.000000
-0.015020 0.084250 0.012170 -0.839714 -0.017233 -0.542756 0.000000
0.003981 -0.103387 0.000380 0.114244 -0.010783 -0.993394 0.000000
-0.014945 -0.065712 0.015995 -0.830741 -0.007373 -0.556610 0.000000
0.017278 0.137961 0.031085 0.809650 0.014441 0.586736 0.000000
0.017216 0.045122 0.033572 0.840062 0.019716 0.542133 0.000000
0.014588 -0.001418 0.011413 0.668895 -0.013460 -0.743235 0.000000
0.027550 -0.101607 0.034382 0.980022 -0.000108 0.198887 0.000000
0.010142 0.094710 0.005247 0.493026 -0.035201 -0.869302 0.000000
-0.024949 -0.095231 0.036571 -0.936317 0.093619 0.338447 0.000000
-0.022291 -0.126671 0.027429 0.842949 -0.532686 0.075381 0.000000
0.009202 0.116472 0.004123 0.444365 -0.027457 -0.895425 0.000000
0.000602 0.033932 0.042871 0.047906 0.038815 0.998097 0.000000
0.013063 -0.014393 0.010434 0.618889 -0.023013 -0.785141 0.000000
0.023308 -0.076400 0.025729 0.919460 0.386569 -0.071826 0.000000
0.007761 0.129832 0.003099 0.382367 -0.035758 -0.923318 0.000000
-0.015758 0.118502 0.030980 -0.757527 0.016736 0.652589 0.000000
-0.011519 -0.129571 0.004598 -0.238971 -0.891351 -0.385208 0.000000
-0.015211 -0.108114 0.050273 -0.557916 0.020219 0.829651 0.000000
0.006792 -0.128051 0.054765 0.156187 -0.493846 0.855407 0.000000
-0.017849 0.134228 0.019210 -0.996529 0.001077 -0.083241 0.000000
-0.017890 0.009462 0.026899 -0.990030 -0.009570 0.140531 0.000000
0.007891 0.089684 0.040003 0.385022 0.023075 0.922619 0.000000
0.001803 0.138413 0.040060 0.168307 0.019752 0.985537 0.000000
-0.026123 -0.118751 0.033459 -0.980112 0.006701 0.198332 0.000000
-0.015476 -0.014198 0.034769 -0.856481 0.014908 0.515963 0.000000
-0.014113 -0.023766 0.037115 -0.770214 0.023357 0.637358 0.000000
-0.011051 -0.124047 0.043896 0.000887 -0.999442 0.033402 0.000000
-0.000230 0.043790 0.042617 0.039206 0.020260 0.999026 0.000000
-0.025816 -0.107178 0.021087 -0.981129 -0.005278 -0.193282 0.000000
0.020029 0.049446 0.021465 0.998757 -0.007728 -0.049241 0.000000
0.021243 -0.126811 0.040267 -0.779047 -0.496523 -0.382819 0.000000
0.020134 0.093338 0.023326 0.999850 0.000004 0.017312 0.000000
0.010905 0.094700 0.038424 0.564392 0.020406 0.825255 0.000000
-0.001568 0.173736 0.029357 -0.003547 0.999925 -0.011697 0.000000
-0.022951 -0.128927 0.022402 0.652668 -0.736327 0.178459 0.000000
-0.018213 -0.075476 0.016022 -0.767197 0.472976 -0.433246 0.000000
0.012375 -0.027961 0.040899 0.629702 0.021127 0.776550 0.000000
-0.008484 -0.072980 0.008589 -0.447920 0.480308 -0.754103 0.000000
-0.010989 0.037019 0.008893 -0.686947 -0.017306 -0.726502 0.000000
0.017816 0.108594 0.030885 0.893212 0.010951 0.449502 0.000000
0.000393 -0.087634 0.053694 -0.036649 0.225732 0.973500 0.000000
0.009425 0.127817 0.038337 0.485051 -0.001835 0.874484 0.000000
-0.022449 -0.122739 0.042965 -0.820517 0.020920 0.571238 0.000000
0.016099 -0.041691 0.037611 0.787826 0.016332 0.615681 0.000000
0.008634 -0.129834 0.003085 0.141507 -0.839466 -0.524664 0.000000
0.011197 -0.002029 0.041087 0.622457 0.013771 0.782533 0.000000
0.019538 -0.008593 0.020614 0.977751 -0.004564 -0.209721 0.000000
-0.016600 0.076838 0.029907 -0.885682 0.020948 0.463820 0.000000
0.019626 0.116330 0.015646 0.885528 -0.015004 -0.464344 0.000000
-0.012816 0.036887 0.010616 -0.697988 -0.017064 -0.715906 0.000000
0.013493 0.068770 0.008334 0.649788 -0.022620 -0.759779 0.000000
0.007701 0.025570 0.041866 0.340862 0.030338 0.939624 0.000000
0.002823 0.130297 0.001982 0.025910 -0.032170 -0.999147 0.000000
-0.013612 -0.124215 0.038952 0.000887 -0.999442 0.033402 0.000000
-0.015923 0.080740 0.031545 -0.945869 -0.000926 0.324546 0.000000
0.006870 -0.032045 0.043823 0.318881 0.029960 0.947321 0.000000
0.007546 0.159952 0.038301 0.417246 0.027021 0.908392 0.000000
-0.002085 0.023082 0.042948 -0.140915 0.019874 0.989822 0.000000
0.017429 0.001551 0.014980 0.877858 -0.017610 -0.478597 0.000000
0.019469 0.005011 0.018881 0.889531 -0.008140 -0.456802 0.000000
0.004148 0.006774 0.005686 0.070226 -0.028891 -0.997113 0.000000
0.020227 0.148163 0.021223 0.999791 -0.007818 0.018892 0.000000
-0.016944 0.115450 0.015310 -0.938584 -0.005547 -0.345006 0.000000
-0.010145 -0.081671 0.049342 -0.383602 0.329814 0.862596 0.000000
-0.014055 0.172287 0.027894 -0.656987 0.690527 0.302558 0.000000
-0.017685 0.040271 0.020101 -0.979102 -0.010101 -0.203121 0.000000
0.001046 0.036805 0.004650 -0.043596 -0.024738 -0.998743 0.000000
0.001293 -0.068187 0.045817 0.050602 0.035931 0.998072 0.000000
-0.017233 -0.072545 0.017341 -0.806409 0.442475 -0.392326 0.000000
-0.002296 -0.054574 0.045213 -0.239720 0.036864 0.970142 0.000000
-0.017517 0.078386 0.028913 -0.996469 0.020082 0.081528 0.000000
-0.002393 -0.125443 0.006083 0.234948 -0.235169 0.943130 0.000000
-0.000348 0.095466 0.041051 -0.032898 0.027527 0.999080 0.000000
0.009279 -0.008082 0.007674 0.312952 -0.026691 -0.949394 0.000000
-0.012302 0.065142 0.009283 -0.731880 -0.010968 -0.681345 0.000000
0.004527 -0.101229 0.000429 0.160828 -0.021337 -0.986752 0.000000
-0.004725 0.173451 0.034759 -0.263564 0.784888 0.560790 0.000000
0.009807 0.173331 0.013613 0.002110 0.999627 -0.027238 0.000000
0.020041 -0.043869 0.026985 0.997953 0.010755 0.063044 0.000000
0.019822 -0.052974 0.031170 0.998433 0.003865 0.055826 0.000000
0.020028 0.041450 0.022162 0.999041 0.000448 -0.043790 0.000000
-0.000374 -0.126245 0.000900 -0.026955 -0.027555 -0.999257 0.000000
0.017418 0.048820 0.033166 0.829662 0.013855 0.558095 0.000000
-0.011788 0.150947 0.006368 -0.700926 -0.015185 -0.713073 0.000000
0.019620 0.017080 0.020004 0.983019 -0.018414 -0.182577 0.000000
0.006469 -0.068260 0.008254 0.434749 -0.037658 -0.899764 0.000000
0.005303 0.011898 0.005850 0.226423 -0.023485 -0.973746 0.000000
-0.007215 -0.020936 0.042582 -0.377860 0.026152 0.925493 0.000000
-0.002095 -0.125026 0.008048 -0.005035 -0.999754 0.021616 0.000000
-0.012354 -0.128938 0.003653 -0.238971 -0.891351 -0.385208 0.000000
0.012519 -0.124361 0.032801 0.001484 -0.999612 0.027818 0.000000
0.017367 0.006569 0.014820 0.884655 -0.023095 -0.465674 0.000000
0.020069 0.146442 0.017843 0.981555 -0.003376 -0.191152 0.000000
0.011021 0.125972 0.004873 0.514879 -0.037291 -0.856451 0.000000
0.019184 -0.009463 0.018986 0.977751 -0.004564 -0.209721 0.000000
0.012776 0.017137 0.039248 0.579487 0.044742 0.813753 0.000000
0.028043 -0.126664 0.024127 0.990982 0.007151 -0.133801 0.000000
-0.013580 0.088156 0.009784 -0.665208 -0.019307 -0.746409 0.000000
0.015425 0.113478 0.034150 0.746640 0.008072 0.665180 0.000000
-0.000868 -0.065903 0.045631 -0.104180 0.039125 0.993789 0.000000
0.002737 0.157647 0.039325 0.110391 0.035899 0.993240 0.000000
0.016525 -0.032723 0.014693 0.772714 -0.022704 -0.634348 0.000000
-0.006415 0.162631 0.037650 -0.388472 -0.039113 0.920630 0.000000
-0.016474 0.007608 0.032388 -0.951188 0.003476 0.308593 0.000000
0.013249 0.082588 0.036973 0.647496 -0.006176 0.762044 0.000000
0.018385 0.126215 0.029242 0.891704 0.020731 0.452144 0.000000
-0.022063 -0.113982 0.012856 -0.867683 0.013637 -0.496931 0.000000
-0.000987 0.085505 0.041261 -0.139737 0.026510 0.989834 0.000000
-0.002163 -0.113593 0.055415 -0.078756 0.010798 0.996836 0.000000
0.010720 -0.090738 0.002536 0.371094 0.115767 -0.921351 0.000000
0.003439 -0.005001 0.005968 0.072359 -0.027190 -0.997008 0.000000
-0.016772 0.140884 0.014004 -0.914694 -0.046905 -0.401416 0.000000
0.000330 -0.073112 0.048004 -0.025914 0.513931 0.857440 0.000000
0.001631 0.132230 0.001802 0.096211 -0.030288 -0.994900 0.000000
0.007895 -0.124877 0.013414 -0.005454 -0.999472 0.032037 0.000000
0.011378 0.173517 0.021916 0.000878 0.999901 -0.014025 0.000000
0.019308 0.077318 0.016993 0.944723 -0.003859 -0.327846 0.000000
0.019898 0.014454 0.020890 0.957470 0.000164 -0.288533 0.000000
0.028185 -0.122043 0.025421 0.990982 0.007151 -0.133801 0.000000
-0.011840 0.042954 0.009520 -0.697988 -0.017064 -0.715906 0.000000
-0.008333 -0.018339 0.008672 -0.488482 -0.032631 -0.871964 0.000000
0.009571 0.129814 0.003897 0.416620 -0.018292 -0.908897 0.000000
0.001289 0.105611 0.002649 0.040693 -0.036040 -0.998521 0.000000
-0.026020 -0.091280 0.025322 -0.983500 0.176282 -0.040645 0.000000
-0.007278 0.039563 0.006452 -0.483878 -0.026565 -0.874732 0.000000
-0.003869 -0.024321 0.006993 -0.331267 -0.039521 -0.942709 0.000000
-0.016126 0.084060 0.030722 -0.937814 0.007705 0.347052 0.000000
-0.024433 -0.088293 0.035214 -0.921698 0.177630 0.344848 0.000000
0.004753 -0.124769 0.017733 0.001607 -0.999678 0.025326 0.000000
-0.001542 0.006743 0.005670 -0.151934 -0.022466 -0.988135 0.000000
-0.009040 0.007497 0.008311 -0.469851 -0.020137 -0.882516 0.000000
0.021790 -0.089208 0.043993 0.818642 0.172886 0.547664 0.000000
0.004525 0.001133 0.005987 0.214094 -0.026020 -0.976467 0.000000
-0.016713 0.109731 0.028526 -0.901037 0.016868 0.433414 0.000000
0.026100 -0.125815 0.016794 0.840017 -0.024476 -0.542007 0.000000
-0.012628 0.060059 0.036432 -0.641787 0.018424 0.766662 0.000000
-0.021531 -0.128097 0.020542 0.723012 -0.636405 0.268779 0.000000
-0.017584 -0.008709 0.029632 -0.941791 0.006919 0.336127 0.000000
-0.006628 0.060046 0.005348 -0.530786 -0.035851 -0.846747 0.000000
0.009303 0.051281 0.040450 0.449678 0.023151 0.892891 0.000000
-0.025676 -0.099171 0.020377 -0.974837 -0.004071 -0.222880 0.000000
-0.001891 -0.008480 0.006156 -0.124211 -0.025166 -0.991937 0.000000
-0.004468 -0.038662 0.007536 -0.356670 -0.032990 -0.933648 0.000000
-0.020795 -0.126320 0.021258 0.795532 -0.519394 0.312024 0.000000
0.006879 -0.007073 0.006854 0.312952 -0.026691 -0.949394 0.000000
0.009320 0.089650 0.039487 0.504049 0.020611 0.863429 0.000000
0.001885 0.119852 0.002189 -0.071063 -0.029676 -0.997030 0.000000
0.008517 0.140691 0.003075 0.338497 -0.040126 -0.940112 0.000000
-0.003429 0.057754 0.004168 -0.427109 -0.015805 -0.904062 0.000000
-0.023718 -0.128633 0.016709 -0.785328 -0.496447 -0.369866 0.000000
-0.014563 -0.043917 0.016829 -0.766398 0.470139 -0.437726 0.000000
0.016990 -0.111505 0.049927 0.553860 -0.431279 0.712206 0.000000
0.020081 -0.069116 0.025716 0.999781 0.020919 -0.000587 0.000000
-0.018486 -0.050423 0.022389 -0.989265 0.098405 0.108030 0.000000
-0.015918 -0.045431 0.034963 -0.870531 0.018131 0.491779 0.000000
0.012075 -0.052327 0.010437 0.425297 -0.021071 -0.904808 0.000000
-0.005338 0.128932 0.003100 -0.389744 -0.034944 -0.920260 0.000000
-0.020969 -0.100689 0.044470 -0.778288 0.011326 0.627806 0.000000
0.015560 -0.051851 0.039005 0.855580 0.012526 0.517519 0.000000
0.017181 0.168917 0.030159 0.821709 0.237920 0.517870 0.000000
-0.017963 0.086951 0.022091 -0.998317 -0.003213 -0.057909 0.000000
0.017902 0.099467 0.031443 0.770443 0.010451 0.637423 0.000000
-0.010218 0.083253 0.007014 -0.573618 -0.023866 -0.818775 0.000000
-0.015636 -0.069907 0.017040 -0.913320 -0.011254 -0.407087 0.000000
0.019877 -0.036926 0.029781 0.938874 0.015916 0.343892 0.000000
-0.006532 0.008162 0.007044 -0.385568 -0.029403 -0.922211 0.000000
0.009708 0.127279 0.038179 0.485051 -0.001835 0.874484 0.000000
-0.008118 -0.083398 0.003892 -0.403334 0.267277 -0.875148 0.000000
-0.014102 -0.074887 0.043043 -0.638050 0.461934 0.616044 0.000000
-0.001859 0.125375 0.002263 -0.065430 -0.035607 -0.997222 0.000000
0.018552 0.014760 0.031796 0.909422 -0.000185 0.415875 0.000000
-0.011999 0.108381 0.007057 -0.471610 -0.026288 -0.881415 0.000000
0.015488 0.047393 0.035854 0.739379 0.022739 0.672905 0.000000
