# .PCD v.5 - Point Cloud Data file format
FIELDS x y z normal_x normal_y normal_z curvature
SIZE 4 4 4 4 4 4 4
TYPE F F F F F F F
WIDTH 730
HEIGHT 1
POINTS 730
DATA ascii
0.021953 -0.014601 0.001620 0.234400 -0.137479 -0.962370 0.000000
-0.026998 -0.004073 0.014117 -0.995661 -0.092910 -0.005111 0.000000
0.019668 0.000253 0.159384 0.983523 0.180661 0.006573 0.000000
-0.017109 0.006361 0.281840 -0.898540 0.438802 -0.008889 0.000000
0.003123 0.018079 0.276402 0.157165 0.987546 0.007205 0.000000
-0.017694 -0.006594 0.135337 -0.934835 -0.355046 0.005134 0.000000
0.009638 -0.026376 0.022919 0.382477 -0.923940 0.006751 0.000000
-0.003145 -0.019380 0.096603 -0.114729 -0.993359 -0.008629 0.000000
0.019635 0.001367 0.286572 0.993818 0.109993 0.015097 0.000000
-0.024785 -0.011758 0.021354 -0.914583 -0.402959 0.034088 0.000000
-0.012578 0.013681 0.080391 -0.543389 0.838953 -0.029778 0.000000
0.024656 -0.013320 0.014325 0.858839 -0.512209 0.006058 0.000000
0.009476 -0.026424 0.025589 0.382477 -0.923940 0.006751 0.000000
-0.014333 0.011470 0.140605 -0.833708 0.552144 0.008308 0.000000
0.018949 0.004174 0.127774 0.938668 0.344822 0.000928 0.000000
0.006149 0.017450 0.210189 0.324088 0.945982 0.009177 0.000000
-0.004119 -0.027652 0.021289 -0.109965 -0.993667 0.023099 0.000000
-0.007537 0.016528 0.205132 -0.463046 0.886322 0.004586 0.000000
0.000373 -0.019704 0.113884 0.050559 -0.998670 -0.010117 0.000000
0.027728 -0.001784 0.013929 0.997072 -0.076422 -0.002792 0.000000
0.012738 -0.005551 0.304594 0.000879 -0.016167 0.999869 0.000000
0.008209 -0.017996 0.067104 0.447660 -0.894188 -0.005304 0.000000
-0.010482 0.023177 0.044604 -0.423126 0.857776 0.291863 0.000000
0.003056 0.018080 0.216157 0.151867 0.988290 -0.014782 0.000000
-0.003128 0.013732 0.006608 0.003414 0.003975 -0.999986 0.000000
-0.018403 -0.003349 0.208886 -0.996469 -0.082097 0.017612 0.000000
-0.015019 -0.012108 0.239026 -0.882834 -0.469383 -0.016813 0.000000
0.008159 -0.018458 0.269969 0.303909 -0.952474 -0.020819 0.000000
-0.016139 0.007743 0.069329 -0.851169 0.418223 0.317175 0.000000
-0.002106 -0.027884 0.033918 -0.092230 -0.991401 0.092827 0.000000
-0.006568 0.016807 0.269155 -0.398452 0.917128 0.010535 0.000000
0.008503 0.016648 0.075324 0.418308 0.908296 -0.004139 0.000000
0.019618 0.000493 0.243022 0.999831 0.007065 0.016972 0.000000
-0.018112 -0.004907 0.254201 -0.988295 -0.152517 -0.003498 0.000000
-0.013996 -0.013221 0.258783 -0.804381 -0.594112 -0.001694 0.000000
-0.024538 -0.004676 0.001924 0.486664 0.100327 -0.867809 0.000000
-0.008882 -0.017319 0.069300 -0.537351 -0.843303 0.009624 0.000000
-0.017417 0.020516 0.025339 -0.679213 0.733390 0.028426 0.000000
-0.021703 -0.004386 0.055572 -0.897699 -0.006358 0.440564 0.000000
-0.009081 -0.017155 0.112333 -0.534398 -0.845204 -0.007024 0.000000
0.011021 -0.016934 0.279840 0.498317 -0.866977 -0.005539 0.000000
0.005975 -0.025400 0.001619 -0.030154 0.092549 -0.995251 0.000000
-0.002095 0.026830 0.017665 -0.085818 0.978850 0.185706 0.000000
0.020276 -0.019203 0.036250 0.743305 -0.661095 0.102235 0.000000
-0.018741 0.000992 0.094857 -0.999357 -0.034675 -0.009160 0.000000
0.006061 -0.027343 0.012297 0.206549 -0.978418 -0.005957 0.000000
-0.004756 0.017579 0.191195 -0.247012 0.969008 -0.002795 0.000000
-0.007774 -0.017826 0.106255 -0.377863 -0.925860 -0.001796 0.000000
-0.008626 0.016355 0.077545 -0.548710 0.836004 0.003828 0.000000
-0.002576 0.017999 0.221760 -0.142674 0.989770 -0.000458 0.000000
0.019568 -0.000805 0.127999 0.996747 -0.080103 0.008864 0.000000
0.000762 0.018399 0.145879 -0.053923 0.998544 -0.001371 0.000000
0.016265 -0.006095 0.303716 0.410395 -0.182380 0.893484 0.000000
0.009800 0.015976 0.095598 0.519390 0.854506 -0.007298 0.000000
0.027719 -0.004734 0.009112 0.999997 0.001187 -0.002011 0.000000
0.019688 0.000491 0.239722 0.999395 -0.034602 -0.003600 0.000000
0.013307 0.013433 0.089176 0.640273 0.768147 0.000820 0.000000
-0.015638 0.009919 0.246161 -0.700119 0.714020 0.003022 0.000000
-0.003330 -0.019531 0.248908 -0.237747 -0.971327 0.000291 0.000000
0.018317 0.005900 0.125684 0.938668 0.344822 0.000928 0.000000
0.009176 0.016491 0.153899 0.580760 0.813473 0.031305 0.000000
0.007714 -0.012615 0.304784 0.210746 -0.261371 0.941951 0.000000
-0.013874 0.011707 0.289703 -0.715916 0.697729 0.025259 0.000000
-0.014469 0.011259 0.136689 -0.808674 0.588256 0.001227 0.000000
0.020446 -0.013886 0.002673 -0.718302 0.501928 -0.481778 0.000000
0.006133 0.017449 0.210852 0.324088 0.945982 0.009177 0.000000
0.017741 -0.008705 0.108650 0.875803 -0.482669 0.000559 0.000000
-0.013657 -0.021750 0.046965 -0.473944 -0.828802 0.297428 0.000000
0.014654 -0.013380 0.096349 0.786528 -0.617554 -0.000366 0.000000
-0.017191 0.006314 0.195349 -0.928709 0.370794 -0.003290 0.000000
0.017942 -0.008433 0.142702 0.881626 -0.471897 -0.007025 0.000000
-0.013633 0.012472 0.069562 -0.770255 0.637736 -0.000398 0.000000
0.012514 -0.015449 0.169300 0.653194 -0.757165 0.006236 0.000000
-0.002156 -0.019653 0.163634 -0.075307 -0.997126 -0.008335 0.000000
0.003029 -0.019583 0.083579 0.231481 -0.972828 0.004769 0.000000
0.007890 -0.018463 0.242626 0.329989 -0.943952 -0.007926 0.000000
-0.012039 -0.015306 0.252917 -0.739571 -0.673064 0.004411 0.000000
-0.018060 0.003520 0.195523 -0.976868 0.213832 -0.002028 0.000000
0.008420 -0.026186 0.039943 0.294824 -0.948029 0.119664 0.000000
-0.006763 -0.018534 0.190353 -0.257344 -0.966312 -0.003977 0.000000
0.017416 -0.021892 0.018252 0.599135 -0.800323 0.022809 0.000000
-0.000359 -0.020325 0.059646 -0.028560 -0.768938 0.638685 0.000000
-0.010832 0.014845 0.093673 -0.553521 0.832834 0.001213 0.000000
-0.010124 -0.016714 0.081203 -0.416262 -0.909241 0.002388 0.000000
-0.017867 0.004290 0.176293 -0.965266 0.261193 -0.006260 0.000000
0.018614 0.004976 0.064267 0.953407 0.300936 0.021283 0.000000
0.006925 0.026091 0.034473 0.214843 0.973351 0.080188 0.000000
0.001015 0.017727 0.006639 0.003414 0.003975 -0.999986 0.000000
0.006396 0.019460 0.057911 0.245808 0.829348 0.501757 0.000000
0.024068 -0.008601 0.001773 -0.672617 0.246428 -0.697753 0.000000
0.023952 -0.013398 0.040035 0.861329 -0.496326 0.108503 0.000000
0.008026 0.001833 0.304694 0.002108 -0.002947 0.999993 0.000000
0.004031 0.026624 0.035442 0.119678 0.991107 0.058175 0.000000
0.017183 -0.009975 0.208964 0.852317 -0.522296 -0.027624 0.000000
0.007706 -0.018309 0.157201 0.340863 -0.940111 0.001961 0.000000
-0.015474 0.007824 0.071006 -0.851169 0.418223 0.317175 0.000000
-0.008520 -0.017419 0.091861 -0.464768 -0.885403 0.007169 0.000000
-0.004727 0.017671 0.191270 -0.360937 0.932497 -0.013164 0.000000
0.011362 -0.013601 0.303689 0.252394 -0.277218 0.927064 0.000000
-0.024701 0.010919 0.012027 -0.934917 0.354431 0.017598 0.000000
0.000584 0.018299 0.212230 -0.045799 0.998950 0.001416 0.000000
0.015369 0.011191 0.146154 0.748868 0.662720 0.000262 0.000000
-0.004584 0.017824 0.085897 -0.251499 0.967852 0.003265 0.000000
0.016445 -0.010936 0.080397 0.855580 -0.517661 -0.003101 0.000000
0.001326 0.018526 0.077246 -0.030257 0.999540 0.002038 0.000000
-0.019784 0.017316 0.002088 -0.224877 0.205962 -0.952371 0.000000
0.005073 0.017946 0.065288 0.309572 0.950786 0.013080 0.000000
0.005559 -0.016520 0.006545 -0.008129 0.006016 -0.999949 0.000000
-0.002098 0.018066 0.283052 -0.219167 0.975615 0.011856 0.000000
0.012489 0.014159 0.132585 0.596242 0.802788 0.005190 0.000000
-0.017448 -0.007787 0.117416 -0.865432 -0.500989 -0.006122 0.000000
0.015473 0.011029 0.234835 0.754602 0.656180 -0.001932 0.000000
-0.015409 0.011327 0.081142 -0.718478 0.683635 0.128187 0.000000
-0.016194 -0.009786 0.237558 -0.877270 -0.479812 0.013370 0.000000
-0.000790 -0.019782 0.174394 -0.137197 -0.990524 -0.006303 0.000000
0.017039 -0.021144 0.041885 0.610992 -0.772232 0.174202 0.000000
0.019415 0.001446 0.112508 0.998694 0.051097 -0.000032 0.000000
0.016640 -0.011003 0.205377 0.800289 -0.599600 -0.004208 0.000000
-0.016228 0.020952 0.018465 -0.569767 0.736731 -0.364134 0.000000
-0.006303 0.017012 0.226108 -0.412095 0.911118 -0.006435 0.000000
0.014140 0.023300 0.026470 0.473795 0.880617 0.005634 0.000000
-0.003244 -0.019453 0.193661 -0.133508 -0.991042 0.003232 0.000000
0.019535 -0.020221 0.007597 0.737178 -0.675380 -0.020738 0.000000
0.003667 -0.027804 0.016552 0.064043 -0.997923 -0.006930 0.000000
-0.024822 0.003334 0.001810 0.073216 0.054571 -0.995822 0.000000
0.018826 0.004502 0.111992 0.978132 0.207975 -0.001930 0.000000
-0.018734 -0.000989 0.076532 -0.998646 -0.052011 0.001431 0.000000
0.010000 -0.022080 0.003623 -0.360971 0.789159 -0.496918 0.000000
-0.013826 -0.016998 0.056370 -0.586609 -0.654044 0.477615 0.000000
-0.011392 0.014061 0.248102 -0.583672 0.811989 -0.000653 0.000000
0.007203 -0.018567 0.189246 0.345856 -0.938282 -0.003344 0.000000
0.001353 0.018322 0.200877 -0.044503 0.999006 -0.002631 0.000000
0.022235 -0.014881 0.043669 0.825055 -0.527523 0.202494 0.000000
0.016741 -0.010863 0.204426 0.883947 -0.467500 -0.008984 0.000000
-0.003462 -0.019654 0.190177 -0.363364 -0.931644 -0.002444 0.000000
-0.018584 0.000753 0.111519 -0.997599 0.069249 0.000113 0.000000
-0.011914 -0.018524 0.006542 -0.025781 -0.057843 -0.997993 0.000000
0.002940 -0.027834 0.014192 0.064043 -0.997923 -0.006930 0.000000
-0.005821 0.017277 0.168296 -0.298889 0.954229 0.010608 0.000000
0.017487 0.008331 0.105922 0.945087 0.326813 0.001889 0.000000
-0.009726 -0.002729 0.304693 -0.009665 -0.015195 0.999838 0.000000
-0.026479 0.005604 0.035208 -0.960501 0.260704 0.097322 0.000000
0.019292 -0.004265 0.185992 0.991619 -0.129024 -0.006665 0.000000
0.010393 0.015703 0.114306 0.425293 0.905053 -0.002297 0.000000
0.013664 0.013027 0.134930 0.682897 0.730495 -0.005350 0.000000
0.010977 0.021934 0.048746 0.354791 0.871126 0.339502 0.000000
-0.012613 -0.014660 0.149684 -0.625263 -0.780304 -0.013113 0.000000
0.018014 -0.008697 0.178259 0.840061 -0.542481 0.003343 0.000000
0.012155 0.014460 0.060373 0.458346 0.564260 0.686679 0.000000
0.019070 0.004204 0.287503 0.963885 0.265996 -0.013145 0.000000
0.002473 0.023785 0.050061 0.136233 0.935202 0.326860 0.000000
0.000312 0.018502 0.081604 -0.044593 0.998958 0.009741 0.000000
-0.015861 0.008957 0.232450 -0.826175 0.563370 0.007059 0.000000
-0.005525 -0.018803 0.071034 -0.217899 -0.975954 -0.005815 0.000000
-0.019509 -0.011267 0.006286 0.860768 0.424548 -0.280780 0.000000
0.018587 -0.006653 0.137767 0.965179 -0.261558 0.004120 0.000000
-0.017026 -0.008330 0.101032 -0.905981 -0.423318 0.000731 0.000000
-0.008361 0.016365 0.066477 -0.409936 0.911905 0.019530 0.000000
0.004793 0.017912 0.127873 0.215194 0.976568 0.002635 0.000000
0.011685 0.014741 0.232353 0.519621 0.854341 0.009714 0.000000
0.019328 0.002223 0.184630 0.979182 0.202957 0.003467 0.000000
0.019487 -0.018166 0.044488 0.751436 -0.611117 0.248757 0.000000
0.023259 -0.015642 0.004046 0.848092 -0.529817 -0.005914 0.000000
0.015046 0.011566 0.107987 0.747326 0.664445 0.004048 0.000000
-0.002019 -0.019594 0.170692 -0.135123 -0.990828 0.001313 0.000000
-0.003236 -0.020365 0.059198 -0.191396 -0.851038 0.488981 0.000000
-0.012937 -0.014255 0.130420 -0.666388 -0.745468 -0.014320 0.000000
-0.014556 0.014643 0.006585 0.055547 -0.061839 -0.996539 0.000000
0.019485 0.000242 0.123535 0.998190 0.060129 0.001183 0.000000
-0.014146 0.011634 0.158223 -0.817183 0.576376 0.001582 0.000000
-0.018309 -0.003884 0.176248 -0.985042 -0.171819 0.013041 0.000000
0.000216 0.018931 0.068210 0.199445 0.979906 0.002243 0.000000
-0.017096 0.006575 0.201431 -0.945527 0.325527 0.003221 0.000000
0.018942 -0.006237 0.270688 0.949817 -0.312654 -0.009741 0.000000
0.026651 -0.008410 0.013591 0.956175 -0.292743 0.005538 0.000000
-0.007704 0.016559 0.269784 -0.302466 0.953158 0.002295 0.000000
-0.002972 0.018161 0.098979 -0.146141 0.989192 0.011910 0.000000
0.018731 -0.006108 0.098709 0.958769 -0.284085 0.007595 0.000000
-0.017549 -0.006891 0.117798 -0.941791 -0.336182 -0.003231 0.000000
0.012687 0.014284 0.253855 0.752194 0.658940 0.001124 0.000000
0.000549 -0.019770 0.177954 -0.055318 -0.998466 0.002472 0.000000
0.018649 -0.006951 0.157858 0.980963 -0.191889 -0.029847 0.000000
-0.017215 -0.016454 0.051986 -0.662456 -0.658424 0.357253 0.000000
-0.008208 -0.026231 0.038637 -0.264979 -0.956566 0.121525 0.000000
0.019479 -0.004094 0.299536 0.941100 -0.219935 0.256827 0.000000
-0.017202 0.006459 0.163512 -0.901523 0.432665 0.007565 0.000000
0.004734 -0.019395 0.151261 0.339476 -0.940614 0.000946 0.000000
0.010979 -0.016552 0.114244 0.533572 -0.845446 -0.022839 0.000000
-0.000289 -0.027968 0.006509 -0.063776 -0.997959 -0.003348 0.000000
0.007737 -0.018202 0.064890 0.434356 -0.900740 -0.001637 0.000000
0.013608 0.013127 0.120177 0.696518 0.717530 -0.003648 0.000000
0.009877 0.015957 0.086320 0.516130 0.856477 0.007592 0.000000
-0.022289 -0.003308 0.054436 -0.887514 -0.219441 0.405173 0.000000
-0.019906 0.003846 0.058362 -0.874556 0.143121 0.463323 0.000000
0.026272 0.004953 0.042102 0.968301 0.185951 0.166780 0.000000
-0.013979 0.011502 0.260126 -0.723440 0.690387 -0.000596 0.000000
-0.025919 0.006579 0.018656 -0.922633 0.221792 0.315526 0.000000
0.022836 0.010611 0.002041 -0.602666 -0.358770 -0.712796 0.000000
0.000745 -0.023290 0.005368 -0.024529 0.971868 -0.234247 0.000000
-0.010132 0.015449 0.099464 -0.639669 0.768600 0.008751 0.000000
-0.014212 0.011285 0.272516 -0.819808 0.572518 -0.011801 0.000000
0.014663 0.012301 0.123371 0.634757 0.772670 0.008106 0.000000
-0.016274 -0.010431 0.250955 -0.944487 -0.328522 0.004086 0.000000
-0.018277 0.001806 0.073859 -0.793135 0.571395 0.210818 0.000000
0.012165 -0.015805 0.175031 0.650625 -0.759399 -0.000656 0.000000
0.019177 0.003061 0.213898 0.978631 0.205614 0.001937 0.000000
-0.017384 -0.007555 0.068672 -0.924888 -0.380233 -0.002105 0.000000
-0.004200 0.017607 0.275036 -0.218602 0.975669 -0.016811 0.000000
0.019418 -0.002916 0.178559 0.991619 -0.129024 -0.006665 0.000000
0.001723 0.018207 0.269681 0.040234 0.999183 0.003889 0.000000
-0.018070 -0.005093 0.210012 -0.966305 -0.257372 0.003619 0.000000
-0.004542 -0.018997 0.089303 -0.234347 -0.972153 -0.000078 0.000000
-0.018484 -0.001819 0.239984 -0.999440 -0.033275 0.003461 0.000000
0.004094 -0.019566 0.237302 0.237744 -0.971307 -0.006297 0.000000
-0.008845 0.015986 0.109193 -0.488482 0.872551 -0.006295 0.000000
-0.018581 0.001158 0.089734 -0.997001 0.077219 -0.005073 0.000000
-0.023792 0.012750 0.019894 -0.881785 0.471254 -0.019340 0.000000
0.018752 -0.006072 0.158950 0.953678 -0.300713 0.008352 0.000000
0.006462 -0.018941 0.270289 0.325183 -0.945248 0.027602 0.000000
0.017184 0.009025 0.116736 0.938907 0.344166 0.001839 0.000000
-0.018119 0.002801 0.256991 -0.967693 0.250610 0.027662 0.000000
0.015131 -0.012880 0.163773 0.784175 -0.620540 0.000389 0.000000
0.014523 -0.013539 0.087541 0.789586 -0.613640 -0.000916 0.000000
0.015950 0.010722 0.094898 0.722084 0.691806 -0.000440 0.000000
0.019072 -0.005103 0.218775 0.975013 -0.222143 0.001713 0.000000
-0.017348 0.005807 0.205117 -0.945527 0.325527 0.003221 0.000000
-0.020872 -0.005179 0.056438 -0.873533 -0.228713 0.429686 0.000000
0.008527 -0.018021 0.194656 0.469533 -0.882754 0.016863 0.000000
-0.012672 -0.014587 0.213352 -0.638786 -0.769368 0.005073 0.000000
-0.000813 -0.014154 0.006537 -0.001882 0.000163 -0.999998 0.000000
0.018809 -0.006841 0.288235 0.947728 -0.318933 -0.009674 0.000000
-0.010821 -0.016176 0.292270 -0.556766 -0.830310 0.024424 0.000000
0.019190 0.003607 0.151250 0.939727 0.341897 0.004426 0.000000
0.000752 0.018297 0.215710 -0.039267 0.999229 0.000394 0.000000
0.018027 0.006700 0.069229 0.938197 0.345915 0.011363 0.000000
-0.023261 -0.014777 0.006100 -0.850615 -0.525651 0.012040 0.000000
0.019538 -0.002224 0.199404 0.992037 -0.125911 -0.003081 0.000000
-0.027060 0.001881 0.017474 -0.965316 0.108316 0.237555 0.000000
-0.020722 0.016266 0.040019 -0.800254 0.580860 0.148981 0.000000
0.017886 -0.008313 0.114994 0.914451 -0.404687 -0.002685 0.000000
-0.014273 -0.012888 0.263106 -0.730149 -0.683266 -0.005455 0.000000
0.003589 -0.019707 0.267548 0.161377 -0.986883 -0.004463 0.000000
-0.014061 0.011561 0.076032 -0.681521 0.651819 -0.332657 0.000000
-0.025470 -0.009828 0.017915 -0.940675 -0.310085 0.137762 0.000000
-0.015914 0.005354 0.006598 -0.007139 0.001120 -0.999974 0.000000
-0.005006 -0.019129 0.268524 -0.264530 -0.964378 -0.000085 0.000000
0.014848 -0.013848 0.298877 0.679717 -0.718384 0.148020 0.000000
-0.000230 -0.027983 0.009737 -0.063776 -0.997959 -0.003348 0.000000
-0.019728 0.016321 0.043812 -0.766170 0.602682 0.223067 0.000000
0.009144 0.025620 0.006893 0.322069 0.946714 0.002134 0.000000
0.005241 0.007766 0.304727 -0.003065 -0.011267 0.999932 0.000000
0.007023 -0.027090 0.002649 0.213672 -0.976901 -0.002878 0.000000
-0.017151 -0.008100 0.276023 -0.954615 -0.297649 -0.010732 0.000000
0.000300 0.018605 0.245435 -0.208428 0.978032 0.003425 0.000000
0.007394 0.017018 0.172854 0.355669 0.934607 0.003240 0.000000
-0.020168 0.005368 0.057398 -0.874556 0.143121 0.463323 0.000000
-0.007116 -0.018205 0.113019 -0.307754 -0.951337 0.015681 0.000000
0.019586 0.000905 0.195376 0.982399 0.186788 -0.001560 0.000000
-0.016279 0.007768 0.297000 -0.895388 0.445244 -0.006083 0.000000
-0.026422 -0.007128 0.028031 -0.973021 -0.230537 -0.009085 0.000000
0.017066 0.008652 0.219842 0.886023 0.463635 0.002274 0.000000
0.015827 -0.023099 0.018056 0.489121 -0.848470 0.202135 0.000000
-0.002139 0.026946 0.032381 -0.160717 0.986977 0.006817 0.000000
0.018701 -0.005943 0.070855 0.942923 -0.332789 0.012153 0.000000
0.019681 -0.001887 0.285398 0.999238 -0.037115 -0.012044 0.000000
0.009235 -0.017949 0.241665 0.548385 -0.836021 -0.018511 0.000000
-0.018060 0.019919 0.032975 -0.666920 0.745009 0.013392 0.000000
-0.010352 0.023995 0.001673 -0.306628 0.835871 -0.455301 0.000000
0.007615 0.016833 0.199703 0.408547 0.912487 -0.021367 0.000000
0.015646 -0.012942 0.296514 0.711640 -0.702412 -0.013670 0.000000
0.017161 -0.022226 0.020251 0.611176 -0.791313 0.016959 0.000000
-0.010314 -0.016520 0.218607 -0.642674 -0.766135 -0.002679 0.000000
-0.014765 -0.010313 0.302455 -0.656987 -0.323268 0.681077 0.000000
-0.004157 0.017685 0.216534 -0.258873 0.965842 -0.011578 0.000000
0.011692 0.014625 0.226498 0.591558 0.806065 0.017825 0.000000
-0.015810 0.009225 0.272053 -0.778876 0.627128 0.007943 0.000000
-0.004757 0.013314 0.006603 -0.005035 0.008572 -0.999951 0.000000
0.003511 -0.027517 0.002744 0.098693 -0.881388 -0.461969 0.000000
0.018754 -0.006105 0.113115 0.984314 -0.175396 0.019033 0.000000
0.004879 0.026058 0.039561 0.127263 0.976906 0.171636 0.000000
0.007118 0.017143 0.190196 0.314954 0.949107 -0.000131 0.000000
0.010646 0.015555 0.228557 0.387568 0.921660 0.018283 0.000000
-0.009494 0.015343 0.271153 -0.511721 0.859134 -0.005497 0.000000
0.011538 0.024687 0.029939 0.308510 0.950958 0.022361 0.000000
0.017854 0.007329 0.266739 0.892766 0.450462 0.007215 0.000000
-0.001116 -0.019663 0.183599 -0.055318 -0.998466 0.002472 0.000000
0.018589 -0.007100 0.240539 0.918075 -0.395764 0.022563 0.000000
-0.011883 0.020394 0.002863 0.442538 -0.716918 -0.538691 0.000000
0.000592 -0.004405 0.006560 0.001282 0.003446 -0.999993 0.000000
0.007292 -0.017833 0.006507 0.004458 0.008378 -0.999955 0.000000
0.005394 0.026375 0.018370 0.206780 0.954323 0.215661 0.000000
0.018989 0.004107 0.064749 0.941224 0.336981 -0.023250 0.000000
-0.005126 0.017452 0.248423 -0.381779 0.924252 -0.001510 0.000000
0.017993 0.008095 0.059798 0.732895 0.320803 0.599959 0.000000
-0.013173 -0.013929 0.102591 -0.711133 -0.703057 0.001176 0.000000
0.022516 -0.005830 0.053919 0.889027 -0.186159 0.418300 0.000000
-0.008868 0.023227 0.001873 0.043533 -0.069793 -0.996611 0.000000
0.019095 0.004036 0.275638 0.945217 0.326403 0.005106 0.000000
0.017041 0.009021 0.094900 0.789452 0.613811 0.000676 0.000000
0.016834 0.020444 0.041724 0.537339 0.823425 0.182311 0.000000
-0.001776 0.018631 0.062140 -0.262537 0.964905 0.005773 0.000000
-0.011646 -0.015374 0.091753 -0.609990 -0.792400 -0.003862 0.000000
-0.011855 -0.014636 0.301684 -0.550721 -0.763028 0.338370 0.000000
0.001721 -0.019902 0.247566 0.011538 -0.999928 0.003415 0.000000
0.012280 0.014219 0.203650 0.647489 0.761994 0.011117 0.000000
0.006688 -0.018899 0.237344 0.399150 -0.916623 -0.021941 0.000000
-0.013535 0.012326 0.170279 -0.805576 0.592429 -0.008696 0.000000
0.011884 0.014646 0.096756 0.649561 0.760270 -0.007702 0.000000
-0.017427 0.005916 0.165385 -0.949869 0.312615 0.004614 0.000000
0.016615 -0.010812 0.074979 0.795456 -0.605994 -0.004553 0.000000
0.010240 -0.011950 0.304318 0.097654 -0.125922 0.987222 0.000000
-0.006099 0.012858 0.006599 0.008891 0.007366 -0.999933 0.000000
0.005014 0.026245 0.038396 0.109391 0.981699 0.155885 0.000000
0.005268 -0.027541 0.020820 0.152225 -0.988133 -0.020505 0.000000
0.021199 -0.009352 0.006741 -0.896575 0.412226 -0.161936 0.000000
-0.002176 0.018045 0.216795 -0.144565 0.989487 -0.004128 0.000000
0.000777 0.018254 0.267276 0.040234 0.999183 0.003889 0.000000
0.009705 -0.017744 0.270120 0.396587 -0.917997 -0.000106 0.000000
-0.012916 -0.014248 0.158145 -0.709962 -0.704200 -0.007551 0.000000
-0.018163 -0.013742 0.005789 0.797428 0.535087 -0.278910 0.000000
0.005113 0.009688 0.304748 -0.003065 -0.011267 0.999932 0.000000
0.027678 0.003080 0.022588 0.965560 0.258899 -0.025805 0.000000
-0.027184 -0.002626 0.003765 -0.994874 -0.100577 0.010535 0.000000
0.012999 -0.015023 0.136200 0.647122 -0.762386 -0.000916 0.000000
-0.015820 -0.010590 0.104562 -0.851088 -0.525022 0.000844 0.000000
-0.005964 -0.010385 0.006539 0.003803 0.000017 -0.999993 0.000000
-0.010809 -0.016100 0.135023 -0.639709 -0.768520 0.012201 0.000000
-0.017177 -0.007808 0.212619 -0.937814 -0.347126 -0.002775 0.000000
0.017125 -0.010176 0.078002 0.789611 -0.613607 -0.000945 0.000000
-0.018170 -0.005084 0.109601 -0.986815 -0.161821 0.003324 0.000000
-0.014911 -0.012030 0.243470 -0.767322 -0.641230 -0.006370 0.000000
-0.014160 0.011308 0.266815 -0.811891 0.583805 -0.001985 0.000000
-0.008584 -0.017613 0.211644 -0.380875 -0.924626 0.000605 0.000000
-0.017281 -0.021691 0.029062 -0.657670 -0.753271 0.007245 0.000000
0.002034 -0.020122 0.297873 0.038863 -0.997162 0.064472 0.000000
0.007019 -0.018911 0.285620 0.318240 -0.948007 0.002409 0.000000
0.008312 0.016602 0.244092 0.357699 0.933806 -0.007590 0.000000
-0.002153 -0.019801 0.279550 -0.115731 -0.993280 -0.000546 0.000000
0.009787 0.015890 0.283710 0.445487 0.895264 -0.006564 0.000000
-0.016250 0.002152 0.303421 -0.790303 0.159027 0.591719 0.000000
-0.013902 -0.013241 0.112968 -0.689897 -0.723875 -0.006889 0.000000
-0.010754 -0.016036 0.093590 -0.563982 -0.825785 -0.002017 0.000000
0.003252 0.026864 0.028269 0.160824 0.986947 0.008459 0.000000
-0.012790 -0.014492 0.189238 -0.747636 -0.663913 -0.016130 0.000000
0.016470 0.009756 0.094762 0.789452 0.613811 0.000676 0.000000
-0.007165 -0.023488 0.002941 0.202340 0.825323 -0.527163 0.000000
-0.007452 -0.027014 0.012329 -0.176993 -0.984188 -0.006848 0.000000
0.010154 0.015733 0.109277 0.536590 0.843735 -0.013529 0.000000
-0.013663 -0.013538 0.202823 -0.704898 -0.709309 -0.000113 0.000000
-0.001295 -0.019797 0.143168 0.045895 -0.998860 0.013151 0.000000
-0.016565 0.008124 0.095476 -0.900870 0.434017 -0.007892 0.000000
0.013433 0.013378 0.080749 0.739261 0.673414 0.002632 0.000000
-0.008660 0.015988 0.188801 -0.530786 0.847443 -0.010275 0.000000
-0.025449 0.006400 0.020157 -0.922633 0.221792 0.315526 0.000000
0.015105 0.011486 0.124831 0.753770 0.657137 0.001162 0.000000
-0.021353 -0.006616 0.054697 -0.887514 -0.219441 0.405173 0.000000
-0.013675 0.011986 0.248112 -0.789971 0.613129 -0.004377 0.000000
-0.007888 0.017716 0.059514 -0.312905 0.814787 0.488070 0.000000
0.017948 0.006955 0.139980 0.884655 0.466159 -0.009026 0.000000
0.013857 0.012841 0.251052 0.658537 0.752479 0.010223 0.000000
-0.016538 0.008040 0.203079 -0.824648 0.565456 0.014672 0.000000
-0.018000 0.005128 0.066852 -0.982253 0.187276 0.010356 0.000000
-0.013744 0.010456 0.088618 -0.890571 0.347097 -0.293950 0.000000
0.002261 0.012652 0.304615 0.011626 0.154735 0.987888 0.000000
-0.008389 -0.017554 0.098137 -0.393795 -0.919195 0.002410 0.000000
0.018058 -0.008056 0.077082 0.949859 -0.312584 -0.007716 0.000000
0.014009 -0.014361 0.215992 0.773029 -0.634366 0.002258 0.000000
-0.014479 -0.012430 0.300110 -0.800185 -0.591207 0.100888 0.000000
0.015731 -0.012349 0.237461 0.761107 -0.648513 0.012095 0.000000
0.009421 -0.017712 0.300796 0.379420 -0.854721 0.354248 0.000000
0.012709 -0.015294 0.155739 0.656623 -0.754215 0.002366 0.000000
-0.000530 -0.019981 0.279931 -0.027946 -0.999540 -0.011819 0.000000
-0.002780 0.018281 0.093448 -0.058704 0.998273 0.002307 0.000000
-0.000450 -0.020140 0.294623 -0.127384 -0.991463 -0.027823 0.000000
0.011667 -0.016226 0.183312 0.533223 -0.845966 -0.003782 0.000000
-0.017801 -0.006105 0.172224 -0.940581 -0.339562 0.002152 0.000000
0.002386 -0.019596 0.138648 0.064293 -0.997931 -0.000953 0.000000
-0.015949 -0.010386 0.139326 -0.845810 -0.533479 -0.002518 0.000000
0.004944 -0.020303 0.006527 -0.008129 0.006016 -0.999949 0.000000
0.027767 -0.001557 0.033112 0.998394 -0.056651 0.000774 0.000000
-0.010010 -0.016847 0.282112 -0.488218 -0.872693 -0.007109 0.000000
0.019442 -0.005673 0.143796 0.999890 -0.014467 -0.003288 0.000000
0.018158 0.006521 0.215022 0.942516 0.334154 -0.002295 0.000000
-0.005463 0.017398 0.200924 -0.380098 0.924929 0.005656 0.000000
-0.007945 0.016434 0.143797 -0.472801 0.881160 -0.004028 0.000000
0.017961 0.007041 0.239384 0.939684 0.342030 0.003102 0.000000
-0.017524 0.020477 0.015162 -0.678364 0.734706 0.005492 0.000000
0.017042 0.008780 0.200968 0.871912 0.489661 -0.001484 0.000000
-0.018461 -0.001236 0.274943 -0.999866 0.005267 0.015491 0.000000
0.017734 0.020820 0.030911 0.599605 0.800292 0.002620 0.000000
0.012254 -0.019530 0.006262 -0.153911 0.297327 -0.942289 0.000000
0.015967 -0.012319 0.284446 0.777488 -0.628866 0.006305 0.000000
-0.001708 -0.019571 0.124269 -0.123462 -0.992349 -0.000509 0.000000
-0.009640 0.015537 0.140541 -0.469851 0.882722 0.006512 0.000000
-0.018561 -0.000824 0.169522 -0.997576 0.066229 -0.021340 0.000000
-0.000506 0.018311 0.164420 -0.045008 0.998984 0.002311 0.000000
0.019590 -0.000784 0.193896 0.997976 0.063502 -0.003353 0.000000
0.011905 -0.015962 0.215373 0.602614 -0.797941 0.012095 0.000000
-0.018441 0.000597 0.243967 -0.997564 0.069641 0.004093 0.000000
0.000263 0.018386 0.125632 -0.024006 0.999712 -0.000511 0.000000
-0.006328 0.026169 0.018696 -0.260726 0.965326 0.012911 0.000000
0.006944 -0.027171 0.014053 0.255011 -0.966914 0.006873 0.000000
-0.018470 0.000317 0.217529 -0.998418 0.056221 0.000634 0.000000
0.003581 0.018086 0.197391 0.180022 0.983658 -0.002875 0.000000
-0.010836 -0.016156 0.267979 -0.582966 -0.812491 -0.002973 0.000000
0.003897 -0.019644 0.246419 0.236324 -0.971674 0.000168 0.000000
-0.013545 0.012173 0.189260 -0.713741 0.699940 -0.025652 0.000000
0.010905 0.024873 0.030723 0.308510 0.950958 0.022361 0.000000
0.005610 -0.019125 0.201645 0.265121 -0.964215 0.000418 0.000000
0.022815 -0.004430 0.005663 -0.951160 0.209521 -0.226704 0.000000
0.013419 -0.014712 0.160515 0.724254 -0.689410 -0.013043 0.000000
0.014552 0.012496 0.265982 0.818196 0.574883 0.008098 0.000000
-0.008036 -0.017827 0.200892 -0.386645 -0.922227 -0.001894 0.000000
-0.018476 0.009706 0.056995 -0.806409 0.378791 0.454117 0.000000
-0.014688 -0.018720 0.052141 -0.573569 -0.722347 0.386307 0.000000
0.018673 -0.006346 0.145971 0.962313 -0.271888 -0.005606 0.000000
-0.006642 0.016966 0.162871 -0.386697 0.922202 0.003074 0.000000
-0.003493 0.017890 0.180403 -0.187153 0.982322 0.004199 0.000000
0.004727 0.017827 0.224920 0.219803 0.975491 -0.010192 0.000000
-0.009998 0.015403 0.090070 -0.552149 0.833744 0.001818 0.000000
-0.017186 -0.007767 0.250924 -0.940536 -0.339688 -0.002234 0.000000
0.007446 -0.020425 0.006546 0.002957 -0.001716 -0.999994 0.000000
0.014150 0.012490 0.285941 0.655419 0.754619 0.031243 0.000000
0.019616 -0.002541 0.218159 0.999361 0.032611 0.014651 0.000000
-0.013925 -0.013516 0.104798 -0.630675 -0.776000 0.008526 0.000000
-0.018131 0.003493 0.272784 -0.993218 0.116255 -0.001835 0.000000
0.015908 0.010497 0.292403 0.832976 0.553024 0.017774 0.000000
-0.017655 0.004919 0.228333 -0.965654 0.259733 -0.007198 0.000000
-0.016839 0.007229 0.154171 -0.901543 0.432533 0.011615 0.000000
-0.017563 0.001453 0.301793 -0.910989 0.098453 0.400507 0.000000
-0.015911 0.009122 0.156116 -0.831415 0.555537 0.011283 0.000000
0.010581 -0.017067 0.252893 0.531636 -0.846877 -0.012731 0.000000
0.012640 -0.009635 0.304429 0.312031 -0.185978 0.931691 0.000000
0.012407 0.014171 0.238883 0.547756 0.836522 0.013960 0.000000
-0.002105 0.018266 0.119206 -0.124212 0.992244 0.004789 0.000000
0.011105 -0.022498 0.001775 -0.034828 0.115496 -0.992697 0.000000
-0.007378 -0.018060 0.142121 -0.373658 -0.927566 -0.000675 0.000000
0.019599 0.001515 0.196903 0.999875 -0.015027 0.004855 0.000000
-0.009009 -0.017259 0.067652 -0.416201 -0.909270 0.002200 0.000000
-0.001630 -0.019889 0.284843 -0.112564 -0.993571 -0.012089 0.000000
-0.001275 -0.019732 0.197880 -0.110091 -0.993921 -0.000705 0.000000
0.016738 -0.010157 0.006572 0.011043 0.002962 -0.999935 0.000000
-0.011378 0.014354 0.114050 -0.582971 0.812489 0.002386 0.000000
0.021291 -0.001399 0.006607 0.004854 0.001933 -0.999986 0.000000
-0.000600 0.001918 0.006581 0.004880 0.002425 -0.999985 0.000000
-0.012446 -0.014807 0.198076 -0.605640 -0.795736 -0.002096 0.000000
0.007579 -0.018791 0.297249 0.326677 -0.944843 -0.023526 0.000000
-0.016036 0.008967 0.170506 -0.904130 0.427126 0.010610 0.000000
0.016329 0.009967 0.079952 0.865227 0.501380 -0.000772 0.000000
0.007989 0.025986 0.015639 0.319233 0.947670 0.003568 0.000000
-0.013557 0.019903 0.049069 -0.547924 0.766017 0.336149 0.000000
0.003577 0.018221 0.218912 0.292815 0.956148 0.006357 0.000000
-0.020751 -0.004218 0.057043 -0.862926 -0.185105 0.470207 0.000000
0.002214 0.018370 0.102998 0.064978 0.997885 -0.001759 0.000000
0.013214 -0.014964 0.191595 0.649794 -0.760102 -0.003457 0.000000
0.006372 0.017457 0.093452 0.321155 0.947012 0.005273 0.000000
0.014446 -0.013947 0.060097 0.572384 -0.543287 0.614179 0.000000
-0.014506 0.010817 0.276418 -0.784338 0.620307 -0.005827 0.000000
-0.002715 0.018311 0.062874 -0.112161 0.993662 0.007422 0.000000
0.010489 -0.007164 0.006560 0.000359 0.003453 -0.999994 0.000000
0.016716 0.009710 0.210546 0.740642 0.671900 0.000025 0.000000
0.007920 0.015859 0.301818 0.287351 0.866431 0.408323 0.000000
-0.005995 0.017304 0.119952 -0.371871 0.928207 -0.012000 0.000000
-0.022289 -0.015984 0.003364 -0.786882 -0.587225 -0.189695 0.000000
0.019537 0.000570 0.095245 0.999664 -0.025876 0.001691 0.000000
-0.008827 -0.017336 0.160563 -0.462808 -0.886365 -0.012867 0.000000
0.015067 0.000039 0.304419 0.197405 0.034550 0.979713 0.000000
0.017878 0.005118 0.301897 0.821185 0.233284 0.520801 0.000000
-0.008008 -0.017886 0.247145 -0.501676 -0.865042 -0.004901 0.000000
-0.000908 0.018511 0.064436 -0.003478 0.999991 -0.002508 0.000000
0.016608 -0.022420 0.036542 0.630468 -0.771829 0.082403 0.000000
-0.016606 0.007735 0.157637 -0.898895 0.438133 -0.005311 0.000000
-0.011823 0.014138 0.072215 -0.668657 0.743548 0.005873 0.000000
-0.018372 0.001783 0.246785 -0.977492 0.210925 0.004464 0.000000
0.016280 0.010024 0.202132 0.763520 0.644649 -0.038269 0.000000
0.018075 -0.007788 0.061615 0.926191 -0.376997 0.006611 0.000000
-0.014749 -0.012185 0.253820 -0.805289 -0.592866 -0.004460 0.000000
-0.014979 -0.023286 0.005528 -0.582656 -0.812676 -0.008347 0.000000
0.009029 0.016387 0.072575 0.416840 0.908834 -0.016258 0.000000
0.027670 -0.001633 0.035053 0.997386 -0.046697 0.055135 0.000000
0.007343 0.017063 0.151661 0.402109 0.915550 -0.008745 0.000000
0.006392 -0.006014 0.006556 -0.000664 0.005301 -0.999986 0.000000
-0.006932 -0.027081 0.029734 -0.319607 -0.947544 0.003297 0.000000
0.025625 0.009910 0.034541 0.916055 0.398323 0.046711 0.000000
-0.017940 -0.005848 0.096572 -0.948814 -0.315796 -0.005058 0.000000
-0.010898 -0.019283 0.056099 -0.486107 -0.773310 0.407051 0.000000
-0.021512 0.014646 0.042087 -0.776954 0.607681 0.164514 0.000000
-0.027222 -0.001204 0.030524 -0.999955 -0.008529 -0.004086 0.000000
-0.010489 -0.016677 0.284197 -0.679068 -0.734057 -0.005177 0.000000
0.018285 -0.007397 0.133636 0.917134 -0.398530 0.006213 0.000000
0.002991 0.018221 0.191488 0.075996 0.996969 -0.016653 0.000000
-0.024290 0.011914 0.005172 -0.904898 0.425139 0.020414 0.000000
0.009471 -0.025584 0.041292 0.358262 -0.914570 0.187645 0.000000
0.022965 0.006412 0.003813 -0.839056 -0.232985 -0.491633 0.000000
-0.019342 -0.011756 0.054380 -0.791913 -0.470025 0.389808 0.000000
-0.009322 0.015931 0.071901 -0.460528 0.887636 -0.004063 0.000000
-0.009370 -0.024915 0.043445 -0.316337 -0.927207 0.200546 0.000000
-0.000518 0.018321 0.211439 -0.137545 0.990487 0.003988 0.000000
-0.006477 -0.018555 0.257210 -0.398121 -0.917290 -0.008883 0.000000
-0.015628 -0.011001 0.259868 -0.876812 -0.480833 -0.000106 0.000000
0.019616 0.019079 0.025458 0.721967 0.691922 -0.002853 0.000000
0.015883 0.010512 0.144334 0.808866 0.587991 0.001436 0.000000
-0.001004 0.018424 0.074244 -0.064818 0.997824 0.012097 0.000000
-0.008342 -0.025493 0.042760 -0.274740 -0.945137 0.176732 0.000000
0.013763 0.012989 0.128465 0.668894 0.743303 0.008982 0.000000
0.019326 -0.004160 0.239630 0.981033 -0.193706 -0.007245 0.000000
-0.010298 -0.016327 0.065790 -0.511653 -0.859142 0.009263 0.000000
-0.025772 -0.009654 0.032525 -0.909542 -0.415598 -0.003546 0.000000
0.010076 0.015735 0.163712 0.528571 0.848858 -0.007285 0.000000
-0.001532 0.026916 0.022135 -0.056702 0.996890 -0.054723 0.000000
-0.019329 -0.016384 0.047524 -0.735720 -0.599417 0.315302 0.000000
0.013665 0.013208 0.084801 0.742503 0.669435 0.023370 0.000000
0.008656 -0.017930 0.161916 0.378015 -0.925691 0.014150 0.000000
-0.018625 -0.001207 0.129673 -0.998290 -0.058425 0.001697 0.000000
-0.015148 -0.011584 0.226174 -0.803503 -0.595262 -0.006834 0.000000
0.005298 -0.019272 0.227363 0.235385 -0.971900 0.002053 0.000000
0.008086 -0.018217 0.218035 0.416859 -0.908961 0.004220 0.000000
-0.010496 -0.016398 0.267791 -0.581388 -0.813610 -0.005125 0.000000
-0.014020 0.011461 0.262029 -0.723318 0.690514 -0.000492 0.000000
-0.002429 0.018263 0.121802 -0.219204 0.975679 -0.000718 0.000000
0.014326 0.012435 0.183061 0.659642 0.751560 -0.005540 0.000000
0.022835 0.003057 0.006261 -0.413765 -0.038365 -0.909575 0.000000
-0.007553 -0.018068 0.231273 -0.439515 -0.898020 -0.019651 0.000000
0.026741 -0.008130 0.032506 0.949844 -0.312622 0.007957 0.000000
-0.007480 0.016791 0.230776 -0.563038 0.826428 -0.002191 0.000000
-0.018597 -0.001878 0.123002 -0.998290 -0.058446 0.001315 0.000000
0.008154 0.016958 0.159916 0.534795 0.844952 0.007135 0.000000
-0.008891 0.015896 0.237689 -0.381405 0.924406 0.002200 0.000000
-0.024875 -0.011631 0.020025 -0.890551 -0.437062 -0.126078 0.000000
-0.016540 0.005451 0.089692 -0.813490 0.477500 -0.332006 0.000000
-0.012885 -0.014629 0.071295 -0.561117 -0.827736 0.000801 0.000000
0.017467 0.021132 0.009350 0.562784 0.826508 0.012542 0.000000
0.013540 -0.014785 0.236837 0.642557 -0.766238 0.000721 0.000000
-0.003754 -0.019186 0.068966 -0.210291 -0.977597 -0.009075 0.000000
-0.024325 0.011791 0.021479 -0.899520 0.436742 0.010976 0.000000
-0.012159 0.022750 0.042628 -0.507733 0.832930 0.220079 0.000000
0.019467 0.000373 0.090521 0.997245 0.074143 0.002242 0.000000
0.014927 0.011743 0.077933 0.746002 0.665943 0.000657 0.000000
-0.004939 -0.005568 0.006543 0.002875 0.002255 -0.999993 0.000000
0.018502 -0.006958 0.191765 0.939974 -0.341112 -0.009524 0.000000
-0.009876 -0.020249 0.006392 0.144083 0.287627 -0.946842 0.000000
-0.011949 0.013767 0.147864 -0.666607 0.745322 0.011400 0.000000
-0.014904 -0.012114 0.069804 -0.731162 -0.682101 -0.011814 0.000000
-0.026682 0.005178 0.019868 -0.940040 0.184949 -0.286565 0.000000
-0.001846 0.018378 0.185915 -0.268997 0.963114 0.007241 0.000000
-0.017869 -0.005884 0.233358 -0.946014 -0.324097 0.004390 0.000000
-0.004114 0.017675 0.284568 -0.295410 0.955295 0.011996 0.000000
0.015080 -0.012918 0.149843 0.786816 -0.617185 0.002005 0.000000
0.019507 -0.000893 0.088457 0.997953 -0.063339 0.008847 0.000000
0.019560 -0.000143 0.188067 0.999316 0.036973 -0.000420 0.000000
-0.017068 0.006418 0.252447 -0.941069 0.338049 0.010554 0.000000
0.010073 0.025305 0.006597 0.322069 0.946714 0.002134 0.000000
0.022614 0.015658 0.005428 0.844654 0.535310 0.001354 0.000000
-0.011677 -0.025281 0.031903 -0.479056 -0.877762 0.006279 0.000000
-0.018431 0.000692 0.282395 -0.999790 -0.006599 0.019424 0.000000
0.007005 0.017139 0.278741 0.274479 0.961244 0.025900 0.000000
0.018658 0.005199 0.298079 0.918358 0.392771 -0.048462 0.000000
0.008836 0.016455 0.137359 0.396752 0.917914 0.004680 0.000000
-0.004633 -0.019058 0.183483 -0.240264 -0.970699 0.004026 0.000000
-0.014898 0.001687 0.304181 -0.380554 0.028074 0.924333 0.000000
-0.004715 -0.020656 0.058122 -0.177982 -0.865012 0.469124 0.000000
-0.015348 -0.013048 0.006531 0.000882 -0.003217 -0.999994 0.000000
0.024789 -0.005247 0.048381 0.923074 -0.228174 0.309631 0.000000
0.013090 -0.014928 0.134701 0.625990 -0.779786 0.008428 0.000000
0.000193 -0.028105 0.019870 0.004214 -0.932730 -0.360552 0.000000
0.016987 0.008786 0.140360 0.884655 0.466159 -0.009026 0.000000
0.002909 -0.019867 0.298421 0.144259 -0.989243 0.024228 0.000000
0.009660 0.025534 0.009919 0.257620 0.966245 -0.001582 0.000000
0.018410 0.006081 0.284434 0.937451 0.348112 -0.001945 0.000000
-0.004910 -0.019007 0.125456 -0.351940 -0.936020 0.002342 0.000000
-0.014624 0.010790 0.218570 -0.799403 0.600786 0.003147 0.000000
0.013611 -0.014539 0.134100 0.737519 -0.675260 0.009453 0.000000
0.011886 0.014588 0.230235 0.646440 0.762923 0.007949 0.000000
0.017679 0.007888 0.248398 0.938375 0.345613 0.001968 0.000000
0.000406 -0.004738 0.006557 -0.000632 0.003205 -0.999995 0.000000
0.010835 0.015258 0.262599 0.557816 0.829932 0.007308 0.000000
0.013830 0.013069 0.104527 0.602561 0.797915 0.015871 0.000000
-0.016356 -0.020839 0.043118 -0.594549 -0.777903 0.203415 0.000000
0.015215 0.011384 0.225790 0.729919 0.683515 0.004960 0.000000
0.013153 -0.018699 0.055220 0.534615 -0.728387 0.428531 0.000000
-0.015166 -0.011633 0.190712 -0.791250 -0.611465 0.005808 0.000000
-0.005841 -0.018991 0.296298 -0.389368 -0.920990 -0.013000 0.000000
-0.005085 0.017514 0.195564 -0.378081 0.925697 0.011826 0.000000
-0.001586 0.018203 0.281218 -0.219167 0.975615 0.011856 0.000000
-0.017732 -0.006233 0.265820 -0.965897 -0.258928 -0.000142 0.000000
-0.026749 0.004856 0.019882 -0.940040 0.184949 -0.286565 0.000000
0.000616 0.018240 0.268068 0.025571 0.999672 -0.001540 0.000000
-0.019419 0.018751 0.016973 -0.766758 0.641873 0.008969 0.000000
-0.009480 -0.003498 0.006525 0.003749 -0.000207 -0.999993 0.000000
-0.001257 -0.019561 0.091817 -0.128608 -0.991654 0.009131 0.000000
0.017188 0.008645 0.274814 0.891272 0.453400 0.007885 0.000000
0.009448 -0.017886 0.286920 0.415679 -0.909505 0.003423 0.000000
-0.001499 -0.019690 0.175186 -0.138204 -0.990381 -0.006756 0.000000
0.016667 -0.022622 0.013829 0.637384 -0.770542 -0.002606 0.000000
0.000472 -0.020246 0.298766 -0.060761 -0.977837 0.200359 0.000000
0.005582 -0.019047 0.132498 0.315428 -0.948941 0.003909 0.000000
0.005313 -0.019301 0.228959 0.333795 -0.942597 -0.009565 0.000000
-0.008762 0.015763 0.288327 -0.511507 0.859279 -0.001031 0.000000
-0.015675 0.008055 0.301193 -0.768479 0.447434 0.457429 0.000000
-0.007842 -0.026819 0.025907 -0.240440 -0.970609 -0.010329 0.000000
0.003150 0.009525 0.304740 -0.003065 -0.011267 0.999932 0.000000
0.016632 -0.011317 0.288898 0.841917 -0.539496 0.010928 0.000000
-0.000654 -0.025711 0.047569 -0.054832 -0.963382 0.262465 0.000000
0.004694 0.025727 0.041597 0.131700 0.972525 0.191967 0.000000
0.001297 0.018286 0.263954 0.096212 0.995361 -0.000242 0.000000
0.014693 -0.013489 0.156676 0.801620 -0.597816 0.004681 0.000000
0.018280 -0.008010 0.260072 0.937258 -0.348470 0.010732 0.000000
-0.023934 -0.011030 0.043007 -0.890930 -0.422608 0.166272 0.000000
-0.023578 0.013166 0.014324 -0.870949 0.491134 -0.015370 0.000000
0.019339 -0.004445 0.094785 0.998533 -0.053303 -0.009562 0.000000
-0.026218 0.006268 0.036396 -0.972869 0.203604 0.109870 0.000000
0.014463 -0.014058 0.281303 0.723295 -0.690500 -0.007321 0.000000
-0.018675 -0.019479 0.040283 -0.715624 -0.685357 0.134792 0.000000
-0.017519 -0.007110 0.124104 -0.916138 -0.400862 -0.001129 0.000000
-0.010627 -0.022652 0.049249 -0.362921 -0.867512 0.340163 0.000000
-0.017999 -0.005614 0.103250 -0.985017 -0.171305 -0.019899 0.000000
0.018947 -0.005560 0.189129 0.977797 -0.209485 -0.005390 0.000000
-0.018288 -0.004459 0.100726 -0.977431 -0.208324 0.035068 0.000000
-0.000174 0.018072 0.297792 -0.049347 0.996853 -0.062042 0.000000
-0.001536 0.018462 0.119920 -0.219204 0.975679 -0.000718 0.000000
0.008664 -0.017945 0.175032 0.439771 -0.898104 -0.003244 0.000000
-0.014266 0.010859 0.297240 -0.786692 0.617200 -0.013426 0.000000
0.019564 0.000584 0.299641 0.995401 0.088918 0.035651 0.000000
-0.018895 0.002666 0.081304 -0.999105 -0.002129 0.042243 0.000000
-0.009500 0.015389 0.282993 -0.474485 0.880221 -0.008694 0.000000
0.019312 0.002149 0.091481 0.975682 0.219160 -0.003534 0.000000
0.011990 0.014574 0.193747 0.529860 0.848082 0.002417 0.000000
-0.006697 -0.019453 0.189196 -0.048814 -0.998770 -0.008646 0.000000
0.018496 -0.009398 0.006596 0.013328 0.000531 -0.999911 0.000000
0.001746 -0.020138 0.238545 0.234183 -0.972183 -0.004393 0.000000
0.014021 0.012760 0.259977 0.754111 0.656744 -0.001987 0.000000
0.015679 -0.003810 0.304245 0.159231 -0.057511 0.985565 0.000000
-0.003351 0.017590 0.292459 -0.182490 0.961168 0.207009 0.000000
0.005964 0.017676 0.219006 0.151867 0.988290 -0.014782 0.000000
-0.021440 -0.017343 0.012196 -0.820151 -0.571985 0.013654 0.000000
0.006351 0.021380 0.054237 0.242035 0.860406 0.448465 0.000000
-0.010722 -0.016106 0.139241 -0.639583 -0.768645 0.010893 0.000000
-0.004227 0.017966 0.068166 -0.242641 0.970059 -0.010520 0.000000
-0.010613 0.014809 0.151864 -0.560957 0.827830 0.004929 0.000000
0.013339 -0.015299 0.289051 0.564678 -0.825142 -0.016714 0.000000
0.015840 0.011035 0.210929 0.885276 0.465060 0.002529 0.000000
0.007624 -0.021724 0.054794 0.311382 -0.847503 0.429861 0.000000
-0.011412 0.014270 0.142331 -0.578286 0.815827 0.003406 0.000000
0.023445 0.011388 0.044496 0.838937 0.489976 0.236872 0.000000
-0.006617 0.016946 0.196726 -0.400073 0.915937 -0.031633 0.000000
-0.015623 -0.021092 0.044236 -0.713161 -0.634911 0.297136 0.000000
-0.018435 0.001143 0.208228 -0.998408 0.056361 0.002412 0.000000
0.017435 -0.007314 0.006600 0.008113 -0.002811 -0.999963 0.000000
-0.016055 -0.010367 0.167095 -0.810272 -0.585924 -0.012320 0.000000
-0.007662 0.016631 0.129648 -0.470159 0.882581 -0.000799 0.000000
-0.007975 0.016264 0.209995 -0.465783 0.884878 0.006161 0.000000
0.019601 -0.003244 0.289441 0.982690 -0.185255 0.000862 0.000000
0.017984 -0.020546 0.001850 0.570669 -0.622499 -0.535567 0.000000
0.012502 -0.014086 0.302758 0.470409 -0.490067 0.733860 0.000000
-0.023365 0.013421 0.019403 -0.829994 0.437774 -0.345634 0.000000
-0.016281 0.018122 0.048326 -0.630412 0.707523 0.319362 0.000000
0.002091 -0.021997 0.056662 0.044845 -0.886632 0.460296 0.000000
0.012769 0.013834 0.225186 0.607876 0.794024 0.003556 0.000000
-0.018490 -0.003470 0.079302 -0.985054 -0.172224 0.002677 0.000000
-0.025877 0.007898 0.007526 -0.946074 0.323838 -0.008553 0.000000
-0.013355 -0.013914 0.180875 -0.657962 -0.753045 -0.002953 0.000000
0.019473 -0.003853 0.289809 0.985816 -0.166372 0.022067 0.000000
-0.015996 0.021684 0.014120 -0.591167 0.806539 -0.003954 0.000000
0.027112 -0.006703 0.031758 0.980953 -0.194053 -0.008601 0.000000
0.000069 0.018354 0.153501 0.034522 0.999390 -0.005322 0.000000
0.026924 0.006358 0.028761 0.957408 0.288638 -0.007667 0.000000
-0.001497 -0.019671 0.172207 -0.137197 -0.990524 -0.006303 0.000000
0.013429 -0.007852 0.304337 0.187564 -0.066090 0.980026 0.000000
-0.021903 0.015771 0.029201 -0.822178 0.569155 0.009252 0.000000
0.015950 -0.011858 0.189512 0.804386 -0.594021 -0.010110 0.000000
-0.002720 -0.027632 0.036716 -0.049068 -0.995395 0.082345 0.000000
-0.002434 0.018137 0.201179 -0.233140 0.972411 -0.007857 0.000000
0.010588 0.015447 0.175573 0.539673 0.841867 0.003746 0.000000
0.010713 -0.024117 0.045210 0.393989 -0.884014 0.251577 0.000000
-0.004858 0.017584 0.150203 -0.295682 0.955198 -0.012960 0.000000
0.001468 -0.019796 0.198161 0.075947 -0.997026 -0.013072 0.000000
0.007561 -0.027033 0.027942 0.302388 -0.953184 -0.001110 0.000000
-0.016685 -0.009133 0.138180 -0.866044 -0.499904 0.007960 0.000000
0.017585 -0.009055 0.082654 0.927790 -0.372765 -0.015849 0.000000
0.000419 -0.021305 0.058029 -0.025912 -0.872562 0.487815 0.000000
-0.002209 0.018316 0.092823 -0.058704 0.998273 0.002307 0.000000
-0.006397 0.015112 0.302843 -0.266763 0.695652 0.667013 0.000000
-0.016439 -0.009524 0.261655 -0.876812 -0.480833 -0.000106 0.000000
-0.017383 0.005759 0.245567 -0.967413 0.252538 -0.018341 0.000000
0.005272 0.021170 0.006215 -0.202090 -0.835998 -0.510163 0.000000
-0.018721 0.002277 0.077666 -0.959317 -0.129375 -0.250943 0.000000
-0.003020 -0.027807 0.020893 -0.127109 -0.991760 -0.015966 0.000000
-0.008413 0.015727 0.300304 -0.366649 0.911031 0.188655 0.000000
-0.005494 0.020738 0.055722 -0.227330 0.851397 0.472699 0.000000
0.019141 -0.005084 0.235695 0.972444 -0.233137 -0.000112 0.000000
-0.013936 -0.013815 0.130365 -0.863724 -0.503958 0.002427 0.000000
0.019225 0.002627 0.115020 0.978426 0.206597 -0.000413 0.000000
-0.006002 0.017620 0.072961 -0.449171 0.893446 0.000200 0.000000
0.019029 0.004071 0.087300 0.932310 0.361646 0.003263 0.000000
0.003596 -0.019880 0.185816 0.343621 -0.939108 -0.001163 0.000000
0.017024 0.008768 0.160351 0.866429 0.499300 0.000687 0.000000
0.008592 -0.018200 0.265435 0.395708 -0.918341 -0.008116 0.000000
0.016815 -0.010669 0.201689 0.863925 -0.503552 0.008292 0.000000
-0.027101 -0.003873 0.028394 -0.998972 -0.044558 -0.008299 0.000000
-0.006894 -0.018243 0.154921 -0.368008 -0.929820 0.002024 0.000000
0.013837 -0.014367 0.061355 0.795558 -0.605869 -0.003280 0.000000
0.018150 0.006552 0.297199 0.938201 0.345437 0.021268 0.000000
0.009676 -0.017502 0.214660 0.504048 -0.863658 -0.005463 0.000000
0.012675 -0.015459 0.213037 0.652577 -0.757716 -0.003025 0.000000
0.025374 -0.010919 0.038033 0.917555 -0.384589 0.100914 0.000000
0.001979 -0.011065 0.304633 -0.000146 -0.013843 0.999904 0.000000
-0.020042 -0.018672 0.037165 -0.719991 -0.691823 0.054718 0.000000
0.007817 0.016810 0.198738 0.385651 0.922596 0.009521 0.000000
-0.006860 -0.010507 0.304614 -0.009816 -0.011327 0.999888 0.000000
-0.017076 -0.008109 0.100800 -0.931072 -0.364507 -0.015510 0.000000
0.002670 0.018608 0.085835 -0.057502 0.998345 0.000400 0.000000
0.015843 -0.012463 0.285263 0.811837 -0.583779 -0.011122 0.000000
0.018780 0.004755 0.214255 0.942929 0.332981 -0.003029 0.000000
-0.016451 -0.009542 0.083273 -0.864273 -0.502984 -0.006181 0.000000
0.011688 -0.016248 0.199940 0.634007 -0.773326 0.001744 0.000000
0.019403 -0.003417 0.212923 0.991428 -0.130627 -0.002554 0.000000
0.018918 0.003983 0.126767 0.977751 0.209762 0.001768 0.000000
-0.013979 -0.013240 0.257509 -0.804381 -0.594112 -0.001694 0.000000
0.019497 0.019332 0.006785 0.725544 0.688051 0.013110 0.000000
0.007427 0.016911 0.291887 0.350924 0.936357 0.009328 0.000000
0.000820 -0.020057 0.295373 -0.033506 -0.998750 -0.037079 0.000000
0.015856 0.010549 0.092383 0.789452 0.613811 0.000676 0.000000
0.023723 -0.014856 0.019455 0.761853 -0.502136 -0.409194 0.000000
-0.017249 -0.007767 0.182366 -0.953565 -0.301183 -0.001586 0.000000
0.006997 -0.018788 0.269224 0.325183 -0.945248 0.027602 0.000000
-0.025345 -0.010411 0.022409 -0.929972 -0.367190 -0.017970 0.000000
0.018770 0.004647 0.110783 0.940016 0.340807 -0.014855 0.000000
-0.018681 -0.000313 0.126531 -0.998413 -0.056275 0.002194 0.000000
0.010722 0.015322 0.232847 0.519621 0.854341 0.009714 0.000000
0.013052 -0.015126 0.162038 0.724254 -0.689410 -0.013043 0.000000
